0	3456	3433	3439	3469	3510	3519	3541	3559	3575	3573	3575	3576	3583	3588	3587	3588	3594	3605	3609	3603	3605	3611	3613	3602	3565	0	0	0	0	0	0	510	0	0	0	0	0	0	0	0	0	0	0	0	0	0	0	0	0	0	0	0	0	0	0	0	0	3654	0	0	0	0	3658	3700	0	3734	3747	3770	3776	3777	3776	3782	3785	3791	3796	3798	3805	3807	3813	3818	3823	3824	3824	3825	3830	3831	3833	3837	3845	3847	3847	3851	3856	3861	3863	3864	3867	3867	3870	3872	3875	3882	3888	3891	3892	3893	3894	3894	3897	3902	3909	3914	3917	3921	3923	3924	3927	3932	3937	3942	3944	3949	3948	3951	3950	3955	3958	3964	3966	3968	3973	3979	3983	3986	3985	3988	3992	3997	4003	4006	4013	4018	4023	4024	4022	4022	4025	4032	4037	4041	4042	4047	4049	4051	4052	4056	4060	4065	4070	4071	4074	4076	4081	4082	4085	4088	4094	4100	4101	4101	4103	4114	4123	4139	4214	4245	0	1942	1931	1922	1915	1910	1911	1916	1925	1928	1928	1921	1911	1910	1906	1909	1915	1933	0	0	0	0	0	1274	1256	1248	1251	1259	1261	1262	1264	1266	1271	1271	1277	1280	1279	1274	1274	1279	1277	1276	1277	1279	1282	1285	1285	1284	1280	1281	1284	1288	1297	1301	1306	1303	1298	1297	1299	1302	1304	1305	1307	1307	1310	1313	1321	1322	1316	1302	1306	1317	1327	1324	1320	1315	1318	1326	1327	1326	1330	1340	1343	1341	1338	1338	1339	1343	1347	1354	1350	1347	1344	1349	1356	1362	1362	1359	1357	1358	1360	1361	1362	1363	1365	1367	1370	1371	1371	1373	1376	1378	1379	1381	1384	1385	1386	1387	1389	1391	1397	1403	1409	1416	0	0	560	567	582	583	592	589	602	602	597	595	593	592	590	588	586	584	583	580	578	570	561	557	557	558	559	559	559	560	558	557	555	557	556	555	553	551	548	547	546	544	542	542	542	541	540	539	538	541	543	543	542	541	541	0	0	0	0	0	0	0	542	540	539	536	536	0	0	0	0	0	534	533	531	529	528	531	534	537	539	539	538	536	0	0	0	0	0	0	0	534	532	530	528	527	526	525	525	524	523	521	521	522	522	522	520	519	519	519	518	518	517	518	517	517	516	516	516	515	514	514	513	513	514	515	514	514	515	515	513	512	510	510	510	510	511	513	512	511	509	509	508	508	509	509	510	510	510	510	510	510	510	510	512	511	510	509	509	508	507	508	509	509	508	507	507	507	506	506	507	510	510	512	512	515	513	512	510	510	512	512	512	511	512	512	511	510	511	511	509	508	507	508	508	508	508	508	507	506	506	506	505	505	505	507	507	507	506	505	0
0	3425	3463	3425	3488	3489	3499	3519	3548	3559	3575	3581	3577	3575	3586	3590	3592	3602	3611	3612	3604	3604	3606	3609	3608	0	0	0	0	0	0	0	0	0	0	0	0	0	0	0	0	0	0	0	0	0	0	0	0	0	0	0	0	502	0	0	0	3604	0	0	0	0	0	0	0	3645	3707	3756	3769	3774	3778	3780	3788	3788	3791	3795	3799	3805	3806	3810	3812	3816	3820	3822	3823	3826	3828	3833	3837	3844	3846	3845	3847	3852	3855	3856	3860	3867	3871	3872	3872	3873	3878	3885	3889	3891	3891	3892	3892	3898	3906	3913	3915	3916	3919	3921	3923	3927	3934	3938	3940	3940	3944	3945	3951	3950	3954	3959	3965	3967	3968	3971	3975	3978	3982	3985	3990	3994	3998	4001	4003	4008	4015	4020	4024	4024	4025	4025	4031	4034	4040	4043	4047	4048	4052	4055	4058	4062	4067	4071	4069	4070	4072	4076	4079	4083	4088	4093	4098	4097	4099	4102	4111	4123	4149	4195	4177	0	1935	1930	1922	1918	1915	1918	1923	1925	1928	1927	1926	1919	1915	1916	1923	1920	1928	0	0	0	0	1299	1265	1255	1253	1257	1261	1264	1266	1269	1271	1273	1272	1276	1277	1276	1271	1275	1279	1280	1277	1279	1279	1281	1284	1287	1283	1278	1281	1284	1287	1292	1299	1301	1303	1300	1304	1302	1306	1309	1313	1315	1314	1315	1317	1323	1327	1323	1310	1311	1313	1322	1322	1325	1322	1324	1330	1330	1329	1329	1338	1340	1341	1338	1343	1341	1342	1341	1352	1352	1349	1342	1347	1357	1364	1364	1362	1361	1362	1362	1364	1364	1365	1367	1369	1371	1371	1373	1375	1377	1378	1380	1383	1387	1388	1389	1389	1390	1392	1397	1402	1408	1417	0	0	553	564	576	583	591	587	599	602	599	597	594	593	591	590	589	588	586	582	579	573	565	559	559	559	561	560	559	560	559	557	556	558	558	556	553	551	549	549	547	546	543	543	541	541	540	540	540	541	543	543	543	542	542	542	0	0	0	0	0	0	0	541	539	0	0	537	0	0	0	0	535	535	0	531	530	532	535	537	539	539	539	538	536	0	0	0	0	0	0	0	533	0	530	529	527	526	525	524	524	523	522	523	523	523	522	521	521	520	521	520	519	518	518	518	518	518	518	516	515	514	514	513	514	515	515	515	516	515	514	512	512	510	510	510	511	513	513	511	510	510	509	508	508	508	510	512	513	513	513	513	512	510	511	511	511	510	510	509	509	510	510	510	508	509	509	508	507	507	507	509	510	512	513	515	515	513	511	511	513	513	514	513	514	513	512	512	512	513	511	510	509	509	509	510	509	509	510	510	510	508	506	506	506	508	508	509	508	506	0
0	3493	3443	3459	3468	3485	3487	3493	3505	3534	3565	3583	3577	3582	3588	3589	3588	3596	3606	3606	3602	3604	3602	3604	3605	3584	0	0	0	0	0	0	0	0	0	0	0	0	0	0	0	0	0	0	0	0	0	0	0	0	0	0	0	0	0	0	0	0	0	0	0	0	0	0	0	3683	3738	3755	3766	3773	3778	3781	3788	3789	3791	3794	3796	3800	3802	3806	3809	3813	3819	3825	3824	3824	3824	3829	3832	3837	3840	3844	3845	3850	3850	3854	3857	3864	3867	3868	3868	3870	3875	3881	3885	3888	3890	3890	3891	3896	3902	3909	3913	3916	3919	3919	3922	3926	3931	3935	3938	3939	3941	3944	3949	3951	3955	3960	3965	3968	3969	3968	3971	3973	3978	3982	3989	3993	3997	3997	4001	4004	4010	4013	4019	4020	4021	4020	4025	4028	4032	4035	4040	4043	4048	4050	4052	4053	4059	4065	4067	4068	4068	4074	4078	4085	4089	4090	4092	4093	4099	4102	4109	4121	4154	4194	4266	0	1908	1913	1908	1910	1915	1922	1925	1924	1924	1923	1924	1924	1921	1916	1918	1921	1909	0	0	0	0	1247	1254	1255	1254	1259	1261	1263	1265	1265	1267	1266	1269	1274	1276	1277	1274	1276	1277	1279	1277	1279	1276	1279	1284	1283	1284	1281	1289	1291	1291	1294	1298	1298	1299	1297	1303	1302	1305	1306	1308	1308	1309	1310	1311	1314	1317	1318	1314	1313	1312	1315	1318	1323	1325	1324	1324	1323	1324	1326	1332	1333	1332	1333	1341	1343	1345	1342	1350	1350	1349	1343	1343	1349	1356	1358	1357	1356	1358	1360	1362	1362	1362	1364	1366	1368	1367	1369	1371	1374	1375	1377	1381	1384	1386	1387	1388	1390	1391	1395	1398	1405	0	0	0	546	562	577	583	582	579	594	598	595	593	591	590	588	587	586	585	583	580	577	572	564	559	557	557	558	558	557	558	556	555	554	555	554	552	549	549	548	547	544	543	542	541	539	538	538	539	539	540	541	541	541	540	540	541	542	542	0	0	0	0	0	0	0	533	0	0	535	0	0	0	534	534	531	529	528	528	531	533	536	537	537	0	534	0	0	538	0	0	0	0	0	530	528	527	525	0	522	522	522	522	520	520	519	520	519	519	518	518	519	519	518	516	515	515	516	516	515	514	512	512	512	512	512	512	512	512	511	511	511	511	510	509	508	509	509	510	508	508	507	507	507	506	506	506	507	509	510	511	512	511	509	508	509	509	509	508	507	506	506	508	508	507	506	507	507	505	503	503	504	506	506	507	509	511	511	511	509	509	510	511	511	511	512	511	509	509	509	510	510	509	508	507	506	506	506	506	507	508	509	507	506	506	506	505	505	505	504	503	0
0	3471	3446	3446	3473	3484	3478	3479	3490	3518	3551	3574	3581	3586	3592	3591	3590	3598	3602	3604	3601	3606	3605	3601	3595	0	0	0	0	0	0	0	0	0	0	0	0	0	0	0	0	0	0	0	0	0	0	0	0	0	0	0	0	0	0	0	0	0	0	3676	3636	0	0	0	0	3694	3734	3759	3767	3774	3779	3784	3789	3794	3794	3794	3797	3800	3804	3806	3810	3812	3819	3823	3823	3822	3824	3829	3833	3840	3842	3846	3845	3850	3852	3855	3856	3865	3870	3873	3871	3873	3876	3878	3882	3888	3892	3892	3893	3897	3902	3906	3911	3914	3915	3916	3923	3929	3934	3937	3941	3943	3944	3945	3948	3954	3959	3961	3964	3968	3970	3970	3973	3974	3977	3981	3989	3994	3998	3997	4000	4001	4007	4009	4016	4020	4022	4022	4025	4027	4030	4033	4037	4041	4047	4051	4051	4050	4057	4065	4070	4070	4070	4074	4080	4087	4089	4090	4089	4092	4096	4102	4112	4128	4155	4240	4246	0	1904	1916	1905	1903	1911	1920	1927	1924	1924	1923	1931	1933	1931	1920	1919	1917	1921	0	0	510	0	1254	1260	1262	1263	1264	1264	1263	1263	1265	1266	1265	1265	1269	1275	1276	1275	1276	1276	1281	1282	1282	1280	1283	1288	1286	1288	1288	1294	1295	1296	1296	1300	1299	1300	1300	1304	1304	1307	1306	1307	1307	1310	1312	1311	1312	1320	1321	1320	1319	1320	1320	1320	1327	1325	1329	1324	1326	1324	1330	1334	1335	1333	1332	1338	1339	1344	1345	1352	1353	1349	1346	1347	1354	1356	1357	1356	1357	1359	1362	1364	1363	1363	1364	1367	1370	1370	1371	1373	1376	1378	1379	1382	1385	1386	1388	1388	1391	1393	1397	1399	1404	0	0	0	561	574	581	585	586	586	598	598	596	595	592	590	589	589	588	585	583	581	579	575	566	560	557	557	558	558	557	558	559	558	557	557	556	554	551	550	550	548	546	543	544	542	539	538	539	540	541	540	541	541	541	540	540	541	542	0	0	538	0	0	0	0	538	0	0	533	0	0	0	0	536	535	533	529	529	529	531	533	536	538	538	538	0	0	0	0	0	0	0	0	0	531	530	529	527	525	524	523	525	523	521	520	520	520	520	520	520	519	520	518	518	516	516	517	518	517	516	515	515	515	515	515	514	512	512	512	512	511	513	512	512	510	511	511	511	510	509	510	509	509	509	508	508	508	509	510	510	512	512	512	510	509	510	510	511	511	510	510	510	511	510	508	507	508	507	505	504	504	505	507	508	509	510	511	512	512	512	512	512	513	512	513	513	512	510	510	511	513	511	511	509	510	509	509	508	507	507	509	510	509	509	508	508	507	507	506	506	506	0
0	3413	3412	3449	3472	3460	3456	3484	3491	3500	3516	3552	3560	3570	3572	3582	3589	3598	3598	3601	3605	3612	3613	3608	3599	0	0	0	0	0	0	0	0	0	0	0	0	0	504	0	0	0	0	0	0	0	3590	3637	0	0	0	3679	0	0	3724	0	0	0	0	3668	0	0	0	0	0	3699	3749	3754	3763	3770	3776	3778	3781	3787	3787	3788	3789	3794	3802	3806	3810	3810	3816	3820	3821	3821	3822	3827	3831	3838	3840	3845	3845	3850	3853	3855	3858	3864	3866	3867	3867	3873	3876	3878	3882	3885	3889	3888	3892	3894	3898	3900	3907	3910	3912	3913	3920	3924	3929	3931	3937	3940	3944	3944	3947	3953	3958	3959	3962	3966	3967	3967	3971	3978	3980	3981	3986	3991	3996	3998	4000	4000	4005	4003	4009	4013	4020	4021	4025	4025	4027	4028	4032	4038	4043	4049	4049	4048	4052	4059	4066	4069	4068	4072	4077	4084	4083	4084	4086	4091	4097	4102	4113	4126	4157	4197	4238	0	1920	1916	1905	1905	1913	1921	1926	1922	1922	1922	1931	1932	1930	1920	1921	1918	1936	0	0	0	0	1252	1259	1259	1260	1261	1262	1260	1260	1262	1264	1258	1257	1265	1271	1274	1272	1271	1273	1278	1282	1281	1281	1284	1289	1286	1288	1288	1296	1295	1297	1296	1300	1299	1297	1294	1295	1297	1301	1303	1301	1303	1304	1307	1303	1308	1318	1321	1319	1316	1318	1319	1316	1323	1319	1325	1320	1320	1322	1329	1335	1332	1333	1329	1335	1335	1342	1348	1351	1352	1346	1346	1348	1353	1354	1354	1352	1354	1356	1359	1361	1361	1361	1363	1365	1366	1366	1368	1370	1374	1377	1380	1380	1382	1382	1384	1386	1390	1391	1393	1398	1405	0	0	0	555	577	583	584	587	595	598	594	593	591	589	587	585	585	584	582	580	577	575	571	564	559	555	554	554	556	556	556	556	556	554	555	553	552	549	549	547	546	544	542	542	541	539	537	536	537	537	537	538	538	539	537	538	539	540	539	538	0	0	0	0	0	0	538	0	0	0	0	0	0	0	533	530	527	526	526	528	531	533	535	536	537	536	536	537	536	0	0	0	533	531	0	528	528	526	524	523	522	522	522	520	519	518	519	519	518	518	517	517	516	515	514	515	517	517	516	514	515	515	515	515	513	512	510	509	508	508	509	510	510	511	510	511	510	508	507	506	508	508	508	508	508	507	508	507	508	506	506	508	508	507	507	508	508	509	509	509	508	508	508	507	506	506	505	504	503	502	502	503	505	506	507	507	507	508	510	510	510	509	510	509	511	510	509	508	508	509	510	510	510	508	508	507	507	506	505	504	505	506	505	505	505	506	504	505	504	504	504	0
0	3423	3421	3440	3482	3453	3454	3490	3487	3475	3502	3524	3542	3549	3564	3581	3591	3594	3593	3599	3606	3610	3616	3611	3602	3537	0	0	0	0	0	0	0	510	0	0	515	0	0	0	0	0	0	0	0	0	0	0	0	0	0	0	0	0	0	0	0	0	0	0	0	0	0	0	3670	0	3747	3754	3759	3767	3774	3777	3779	3783	3784	3788	3792	3798	3807	3810	3812	3809	3813	3816	3818	3819	3823	3826	3829	3835	3842	3844	3847	3849	3853	3854	3859	3866	3867	3867	3867	3872	3877	3878	3884	3886	3890	3889	3894	3896	3901	3903	3909	3911	3913	3914	3916	3921	3926	3929	3933	3936	3940	3941	3947	3953	3959	3959	3962	3966	3967	3968	3972	3980	3983	3983	3984	3989	3995	3996	3996	3998	4006	4006	4007	4011	4019	4023	4027	4029	4030	4031	4033	4039	4045	4052	4053	4053	4057	4063	4068	4071	4072	4074	4079	4084	4083	4083	4086	4092	4098	4102	4117	4126	4149	4185	0	0	1926	1923	1920	1913	1918	1921	1929	1923	1923	1923	1931	1932	1933	1927	1927	1917	1904	0	0	0	0	1256	1258	1258	1262	1261	1264	1262	1264	1263	1264	1260	1259	1263	1268	1270	1271	1271	1274	1280	1286	1284	1285	1286	1288	1288	1286	1287	1288	1292	1297	1299	1300	1296	1294	1295	1296	1300	1306	1308	1307	1310	1310	1312	1307	1312	1317	1320	1322	1321	1321	1321	1320	1325	1318	1327	1321	1329	1327	1335	1335	1331	1331	1328	1330	1332	1339	1348	1350	1353	1348	1351	1354	1359	1358	1357	1355	1356	1357	1360	1361	1362	1362	1363	1366	1368	1369	1370	1371	1375	1377	1380	1380	1382	1383	1385	1387	1390	1391	1392	1398	1407	0	0	547	558	577	586	584	591	601	599	595	594	591	589	587	586	586	586	583	580	577	576	573	566	560	556	555	556	557	557	556	556	557	556	556	554	554	552	551	549	547	545	543	543	542	540	538	538	538	538	537	537	538	539	539	539	0	0	541	541	541	539	0	0	0	541	539	0	0	538	0	0	0	0	534	531	528	528	527	530	532	534	535	537	538	537	0	0	0	0	0	0	534	0	532	530	0	527	525	523	521	521	521	521	520	520	520	520	520	519	517	517	516	516	516	517	518	517	517	516	515	515	514	515	513	513	0	510	509	509	509	511	510	511	510	511	510	510	509	510	510	510	509	508	508	508	508	509	509	508	507	508	509	508	508	509	509	509	509	510	510	509	508	508	507	506	504	503	504	504	504	504	505	507	509	508	509	509	510	511	512	510	510	510	513	512	512	511	511	511	511	510	510	510	510	509	508	508	508	507	506	507	507	508	506	507	507	508	507	507	506	0
0	3493	3438	3454	3461	3466	3466	3483	3490	3481	3489	3504	3516	3539	3560	3577	3586	3591	3592	3596	3605	3613	3616	3613	0	0	0	0	0	0	0	0	0	0	0	0	0	0	0	0	0	0	0	0	3612	3663	0	0	0	0	0	0	0	0	0	0	0	0	0	3590	0	0	0	3650	3695	3711	3758	3753	3759	3766	3770	3773	3776	3782	3784	3784	3787	3791	3798	3802	3808	3808	3813	3813	3815	3816	3821	3824	3825	3828	3836	3839	3845	3846	3848	3848	3853	3858	3862	3862	3865	3870	3876	3877	3879	3881	3885	3886	3890	3893	3897	3901	3906	3910	3913	3914	3914	3917	3921	3926	3929	3933	3936	3940	3944	3949	3951	3952	3958	3962	3966	3967	3970	3975	3979	3981	3981	3985	3992	3993	3992	3995	4004	4007	4006	4007	4012	4017	4022	4024	4025	4028	4033	4039	4043	4046	4051	4052	4057	4058	4064	4066	4068	4071	4076	4082	4082	4083	4087	4091	4098	4101	4110	4114	4133	4177	0	0	1911	1911	1915	1911	1914	1917	1926	1924	1920	1920	1924	1926	1927	1923	1924	1919	1903	0	533	0	0	0	1253	1252	1254	1256	1259	1261	1262	1260	1261	1260	1262	1264	1266	1269	1271	1274	1275	1278	1278	1278	1281	1287	1288	1287	1286	1285	1286	1287	1292	1296	1293	1289	1288	1292	1296	1298	1301	1305	1303	1308	1303	1307	1305	1311	1314	1314	1319	1320	1320	1318	1316	1322	1315	1322	1321	1330	1331	1336	1336	1330	1332	1330	1330	1328	1332	1340	1343	1349	1350	1353	1351	1353	1353	1357	1354	1354	1355	1357	1359	1359	1361	1361	1363	1365	1366	1367	1366	1370	1373	1376	1378	1380	1382	1383	1385	1388	1388	1389	1395	1409	0	0	540	560	579	582	587	592	600	595	591	590	587	587	584	584	583	582	581	577	573	572	571	565	557	553	553	553	555	556	555	554	554	553	553	551	551	550	549	548	547	544	543	541	541	537	537	536	537	535	535	535	536	538	538	537	0	0	540	539	0	538	0	0	0	0	538	0	0	0	539	540	0	0	532	530	527	0	524	526	529	531	533	535	536	0	0	0	0	0	0	0	0	533	531	529	527	0	524	522	519	0	518	519	519	518	0	517	517	517	515	515	515	515	515	515	516	515	514	513	513	511	509	510	511	511	510	510	509	507	508	508	508	508	508	508	507	508	507	508	506	506	505	506	508	508	507	507	507	505	504	503	505	505	508	509	509	507	506	507	505	505	504	503	503	503	501	500	502	503	503	501	502	504	505	504	505	505	507	507	508	507	508	507	510	509	511	510	510	508	507	507	509	509	508	505	504	505	505	505	503	503	504	505	503	502	504	505	505	504	503	0
0	3475	3460	3438	3469	0	3461	3479	3463	3486	3482	3495	3508	3519	3550	3567	3574	3581	3593	3591	3602	3609	3614	3610	3572	0	0	0	0	0	0	0	0	0	0	0	0	0	0	0	0	510	0	0	0	0	0	0	0	0	0	0	0	0	0	0	0	0	0	0	0	0	0	0	0	3729	3745	3756	3759	3766	3770	3775	3777	3782	3783	3785	3786	3790	3794	3801	3809	3812	3812	3809	3810	3813	3821	3825	3828	3831	3839	3842	3846	3844	3847	3848	3853	3855	3856	3857	3863	3868	3875	3877	3880	3883	3887	3889	3891	3896	3900	3903	3905	3910	3913	3915	3915	3920	3922	3928	3930	3936	3937	3942	3945	3947	3947	3949	3956	3959	3963	3965	3970	3973	3975	3977	3979	3985	3988	3990	3989	3997	4002	4007	4005	4006	4007	4014	4018	4021	4024	4031	4038	4038	4041	4043	4050	4054	4059	4062	4064	4065	4068	4071	4075	4081	4083	4085	4087	4090	4096	4100	4108	4113	4132	4173	0	0	1914	1915	1920	1913	1908	1909	1923	1926	1924	1920	1923	1927	1927	1925	1926	1920	1913	0	533	0	0	0	1258	1257	1258	1256	1258	1263	1265	1264	1265	1266	1269	1269	1270	1271	1275	1275	1273	1275	1277	1281	1280	1285	1284	1285	1281	1285	1283	1287	1289	1294	1288	1284	1284	1291	1296	1299	1300	1304	1302	1303	1300	1303	1303	1309	1315	1319	1319	1318	1320	1320	1322	1326	1323	1324	1322	1327	1328	1336	1339	1336	1335	1334	1335	1332	1332	1336	1341	1349	1351	1353	1351	1353	1352	1359	1353	1354	1355	1358	1359	1360	1363	1362	1365	1365	1367	1369	1369	1372	1374	1376	1378	1380	1382	1384	1387	1390	1389	1390	1397	1416	0	0	0	560	574	589	590	599	601	595	593	591	588	587	585	584	584	583	582	579	575	574	573	565	556	552	552	554	555	556	556	555	555	555	554	553	551	552	550	550	548	545	544	542	541	538	538	538	539	537	537	536	537	539	541	541	0	0	0	0	539	538	540	538	0	0	0	542	0	0	0	0	0	0	535	532	0	527	527	528	530	531	534	536	536	0	0	0	0	0	0	0	0	0	0	531	528	527	525	523	521	521	0	520	520	520	519	518	0	0	516	516	515	516	516	515	515	513	513	513	513	512	511	511	511	513	511	512	511	511	510	509	509	508	507	508	507	508	508	507	506	505	505	506	507	508	506	507	508	506	505	503	506	508	509	509	509	508	507	507	506	506	504	504	505	504	503	502	503	505	504	503	503	503	505	505	507	507	508	509	510	510	510	510	512	512	512	513	513	511	510	509	511	510	509	507	507	506	507	506	506	506	508	507	506	504	506	506	507	506	506	0
0	3467	3452	3421	3413	3444	3458	3455	3461	3468	3483	3502	3498	3509	3536	3562	3574	3580	3593	3599	3598	3602	3605	3604	3569	0	0	0	0	0	0	0	0	0	0	0	0	0	0	0	0	0	0	0	0	0	0	0	0	0	0	0	3665	0	0	0	3606	0	0	0	0	0	0	0	3759	3749	3744	3755	3757	3761	3763	3770	3773	3779	3782	3782	3782	3784	3789	3795	3804	3809	3809	3806	3806	3811	3818	3823	3826	3830	3835	3838	3841	3840	3843	3845	3850	3852	3853	3854	3860	3864	3868	3872	3874	3878	3881	3885	3888	3894	3897	3899	3897	3901	3906	3911	3913	3917	3920	3925	3926	3932	3934	3940	3942	3943	3945	3948	3953	3952	3957	3960	3968	3970	3971	3974	3978	3983	3984	3988	3989	3996	3998	4003	4004	4006	4007	4012	4013	4014	4016	4026	4036	4037	4037	4037	4046	4050	4055	4057	4059	4061	4062	4066	4071	4078	4083	4084	4086	4087	4092	4096	4101	4108	4134	4204	4192	0	1911	1912	1915	1912	1903	1904	1917	1930	1927	1923	1922	1928	1927	1929	1926	1924	1924	0	0	0	0	1260	1256	1253	1255	1253	1258	1261	1264	1263	1263	1264	1268	1271	1270	1270	1272	1275	1272	1274	1275	1278	1278	1284	1286	1285	1282	1283	1284	1284	1285	1287	1285	1283	1284	1287	1289	1291	1292	1297	1296	1295	1291	1294	1294	1299	1307	1312	1311	1311	1311	1313	1315	1319	1321	1323	1326	1324	1323	1326	1333	1334	1339	1341	1340	1334	1330	1333	1340	1346	1345	1345	1344	1346	1350	1356	1350	1350	1351	1355	1357	1358	1360	1361	1363	1363	1364	1365	1367	1369	1372	1374	1375	1376	1378	1381	1386	1390	1389	1392	1400	0	0	543	548	561	575	585	592	599	600	594	590	587	585	584	582	581	580	580	580	577	573	572	571	563	554	549	549	550	552	552	553	552	553	551	551	551	550	550	548	548	547	545	544	541	541	537	538	536	537	534	535	534	0	536	538	539	539	539	0	0	0	0	0	537	0	0	540	540	0	0	0	541	0	0	533	530	528	526	526	526	528	529	531	533	533	533	532	0	0	0	0	0	0	532	0	528	527	525	524	522	521	519	0	518	0	518	517	514	0	515	514	515	513	515	515	513	513	511	511	510	512	511	511	509	510	510	510	511	510	508	508	507	508	506	506	506	506	506	505	504	504	502	502	503	505	505	504	504	504	503	501	500	502	504	506	507	507	506	506	506	505	504	503	501	501	501	501	500	501	502	502	502	501	501	501	502	504	504	505	507	507	508	508	509	509	509	509	510	510	508	508	508	509	507	506	506	507	506	506	504	504	503	504	503	502	501	502	502	505	504	504	0
0	3438	3418	3392	3410	3423	3439	3443	3449	3462	3488	3497	3524	3518	3537	3550	3566	3569	3581	3591	3599	3597	3594	3580	0	0	508	0	0	0	0	0	0	0	0	0	0	0	0	0	0	0	502	0	0	0	0	0	0	0	0	0	0	0	0	3650	0	3706	0	0	0	0	0	0	0	3713	3739	3754	3760	3763	3766	3771	3772	3774	3775	3780	3782	3788	3793	3798	3801	3807	3806	3805	3805	3811	3818	3822	3825	3828	3833	3837	3840	3841	3845	3846	3850	3853	3854	3856	3858	3864	3868	3874	3876	3879	3880	3884	3887	3892	3896	3898	3900	3902	3905	3910	3912	3918	3921	3925	3924	3927	3931	3938	3942	3943	3948	3950	3954	3951	3954	3958	3966	3969	3973	3977	3981	3982	3983	3987	3990	3997	3997	4001	4003	4008	4012	4014	4015	4015	4019	4027	4033	4034	4034	4038	4044	4050	4053	4056	4058	4061	4062	4067	4071	4079	4079	4079	4080	4085	4093	4100	4108	4115	4136	4246	4234	0	1917	1916	1914	1916	1907	1911	1924	1936	1932	1927	1926	1930	1930	1934	1931	1923	1914	0	0	566	0	1262	1257	1251	1254	1256	1261	1263	1263	1264	1262	1265	1267	1270	1270	1269	1273	1276	1276	1276	1278	1281	1279	1281	1283	1284	1283	1284	1285	1288	1288	1290	1290	1288	1290	1289	1291	1292	1296	1297	1300	1298	1301	1299	1300	1301	1304	1307	1305	1308	1310	1312	1313	1319	1317	1321	1325	1324	1319	1322	1327	1333	1336	1340	1343	1342	1338	1336	1338	1342	1341	1343	1341	1344	1348	1353	1350	1351	1352	1356	1357	1358	1360	1362	1365	1365	1366	1367	1369	1372	1374	1376	1377	1378	1380	1383	1388	1390	1389	1394	1404	0	515	554	568	578	585	590	590	598	598	595	591	587	585	584	584	581	580	580	580	578	575	573	572	565	556	550	550	551	553	553	553	553	553	553	551	552	551	552	551	551	549	546	545	544	543	541	540	0	539	537	536	536	536	537	539	541	0	540	0	0	0	0	0	538	0	0	0	0	0	0	0	0	0	0	536	532	528	527	0	528	530	531	533	534	534	0	0	0	0	0	0	0	0	530	530	0	529	0	524	522	522	522	521	520	520	519	517	515	0	0	515	515	514	515	515	515	513	0	511	511	512	0	512	511	0	511	509	511	509	509	509	508	508	507	508	508	508	508	507	505	506	505	505	504	505	505	505	506	505	504	502	503	504	506	505	506	507	507	507	507	507	505	505	504	505	504	504	502	502	501	503	503	503	501	502	503	506	506	508	509	509	509	509	510	511	511	511	511	511	511	511	510	510	507	507	508	510	510	508	506	506	506	506	505	505	504	505	504	506	505	505	0
0	3401	3395	3456	3443	3418	3437	3439	3442	3455	3465	3498	3511	3535	3523	3539	3554	3556	3561	3582	3601	3600	3588	3575	0	0	0	0	0	0	0	0	0	0	0	0	0	0	0	0	0	0	0	0	0	0	0	0	0	0	0	0	0	0	3677	3679	0	0	0	0	0	0	0	0	0	3701	3736	3751	3759	3763	3765	3772	3775	3774	3773	3776	3781	3786	3790	3793	3794	3800	3799	3802	3804	3810	3814	3818	3819	3822	3828	3834	3837	3838	3841	3845	3845	3850	3853	3860	3860	3863	3867	3871	3872	3872	3875	3880	3884	3888	3891	3893	3894	3899	3903	3908	3908	3913	3917	3923	3922	3925	3928	3934	3939	3941	3947	3950	3955	3952	3955	3957	3963	3965	3970	3976	3981	3981	3982	3984	3987	3994	3998	4003	4006	4009	4012	4011	4012	4013	4016	4023	4027	4031	4032	4037	4041	4046	4048	4052	4054	4058	4057	4063	4068	4077	4077	4075	4077	4081	4090	4096	4106	4111	4139	4225	0	0	1924	1914	1909	1913	1912	1914	1919	1929	1923	1924	1923	1930	1929	1932	1931	1923	1907	0	552	0	0	1255	1249	1246	1251	1256	1257	1257	1259	1258	1256	1258	1264	1268	1268	1266	1268	1271	1274	1274	1273	1276	1276	1282	1283	1283	1278	1276	1280	1281	1286	1288	1293	1289	1290	1288	1289	1290	1294	1297	1302	1302	1303	1301	1301	1299	1299	1298	1303	1305	1304	1304	1308	1312	1312	1314	1322	1326	1329	1326	1323	1328	1331	1341	1343	1346	1342	1344	1338	1338	1336	1341	1341	1342	1347	1349	1349	1349	1351	1354	1356	1357	1358	1360	1362	1363	1363	1364	1365	1368	1371	1373	1375	1376	1379	1380	1384	1386	1387	1394	1404	0	514	561	574	575	582	580	585	594	596	592	587	583	581	582	582	580	578	576	575	574	573	572	571	565	557	551	549	548	550	550	550	549	550	550	549	549	549	550	550	549	547	544	543	543	541	539	538	539	538	536	535	534	535	535	536	537	538	536	0	0	0	0	0	0	0	0	0	0	539	0	0	0	0	0	535	531	526	0	525	525	0	529	531	532	533	534	534	0	0	0	0	0	0	0	0	525	526	0	523	521	520	520	0	518	0	0	0	0	0	0	512	513	512	512	513	513	512	510	510	510	510	510	509	509	508	509	508	508	507	506	506	505	505	506	507	506	506	505	505	504	505	504	503	502	503	503	505	505	503	502	501	502	502	502	503	504	505	504	504	504	506	503	503	503	504	502	501	500	500	0	500	501	501	500	0	501	502	504	504	506	505	505	505	507	507	508	508	508	507	507	507	506	505	504	505	505	506	506	504	504	504	503	502	502	502	503	502	503	502	501	500	0
0	3455	0	3470	3405	3438	3442	3447	3456	3443	3454	3482	3503	3493	3518	3511	3513	3513	3545	3558	3586	3589	3586	3580	0	0	0	0	0	0	0	0	0	0	0	0	0	0	0	0	0	0	0	0	0	0	0	0	0	3541	0	0	0	3652	3699	3716	3669	0	3636	0	0	0	0	0	0	0	3743	3755	3761	3766	3768	3772	3774	3773	3774	3776	3780	3783	3787	3791	3792	3796	3797	3802	3804	3810	3813	3817	3821	3823	3830	3835	3839	3837	3841	3847	3846	3847	3849	3858	3862	3866	3869	3871	3871	3873	3879	3883	3884	3888	3893	3896	3898	3903	3908	3911	3912	3916	3917	3922	3921	3926	3928	3934	3937	3940	3944	3945	3950	3951	3955	3958	3963	3966	3970	3975	3978	3978	3981	3986	3990	3996	3997	4001	4005	4010	4013	4012	4016	4018	4021	4025	4025	4029	4032	4038	4042	4044	4046	4050	4053	4056	4056	4062	4068	4072	4072	4072	4077	4081	4089	4096	4107	4119	4139	4247	4227	0	1928	1916	1914	1921	1923	1919	1920	1917	1917	1920	1926	1929	1930	1934	1932	1920	0	0	541	516	0	0	1249	1248	1250	1254	1254	1259	1258	1261	1257	1261	1264	1265	1266	1266	1269	1271	1271	1271	1272	1274	1274	1277	1281	1280	1276	1276	1275	1277	1281	1287	1291	1291	1294	1293	1293	1292	1294	1298	1305	1307	1308	1304	1305	1305	1306	1302	1305	1307	1308	1310	1310	1317	1311	1316	1319	1327	1323	1323	1321	1326	1329	1337	1340	1345	1343	1345	1340	1338	1335	1340	1343	1348	1351	1352	1351	1350	1352	1354	1357	1357	1359	1360	1362	1363	1364	1366	1367	1370	1372	1375	1377	1379	1381	1382	1385	1386	1389	1393	0	0	543	569	573	571	584	581	585	595	597	593	589	585	584	582	582	579	578	576	575	575	573	573	572	568	559	553	551	550	549	550	551	552	552	552	551	551	0	551	551	0	547	544	543	544	543	541	538	539	539	538	536	536	536	535	536	539	541	539	0	0	0	0	0	0	0	0	0	0	0	0	0	0	0	0	536	533	0	0	0	0	0	529	532	0	536	0	0	0	0	0	0	0	0	0	0	528	528	527	526	0	0	0	0	0	517	516	0	0	0	514	515	0	514	513	514	514	513	511	511	511	510	511	509	510	0	0	0	509	508	509	507	505	0	506	507	507	505	505	505	506	506	506	505	505	504	504	506	505	504	504	504	505	504	503	504	504	505	504	505	504	505	503	503	504	506	506	503	502	501	501	501	502	502	501	500	500	501	503	505	507	507	507	508	508	509	509	510	510	510	510	509	508	507	506	508	508	508	508	507	505	505	505	505	504	504	505	505	505	503	501	500	0
0	3458	3472	3446	3444	3426	3437	3463	3484	3465	3496	3488	3486	3500	3514	3506	3497	3501	3529	3549	3559	3571	3580	3590	0	0	0	0	0	0	0	0	0	0	0	0	0	0	0	0	0	0	0	0	0	0	0	0	0	0	0	0	0	0	3701	3631	0	0	0	0	0	0	0	0	0	3734	3746	3754	3757	3761	3762	3765	3769	3774	3780	3780	3781	3780	3782	3787	3790	3794	3795	3799	3804	3811	3812	3815	3817	3823	3828	3832	3835	3833	3838	3843	3844	3846	3848	3854	3859	3861	3865	3864	3866	3870	3878	3882	3885	3892	3895	3897	3896	3900	3905	3909	3910	3912	3914	3917	3918	3922	3926	3931	3933	3934	3938	3940	3947	3950	3955	3955	3959	3962	3967	3969	3972	3974	3978	3984	3986	3992	3992	3997	4002	4006	4007	4006	4011	4016	4017	4019	4018	4022	4029	4036	4039	4042	4044	4050	4050	4053	4054	4059	4065	4067	4070	4070	4074	4077	4085	4093	4103	4117	4182	4261	4242	0	1915	1910	1918	1923	1925	1917	1918	1914	1915	1920	1927	1930	1931	1933	1933	1913	0	0	551	547	0	0	1254	1249	1252	1250	1251	1255	1259	1260	1260	1261	1266	1267	1266	1264	1265	1268	1269	1268	1268	1270	1269	1274	1279	1281	1276	1276	1273	1273	1278	1281	1285	1283	1288	1288	1289	1288	1288	1292	1298	1304	1303	1303	1303	1305	1307	1302	1306	1310	1311	1308	1307	1314	1315	1315	1316	1314	1317	1314	1318	1321	1326	1336	1340	1343	1340	1341	1341	1334	1332	1337	1345	1350	1354	1352	1349	1347	1349	1350	1353	1353	1355	1356	1358	1358	1361	1363	1366	1368	1369	1372	1374	1377	1379	1380	1384	1386	1388	1393	0	0	554	565	567	572	579	581	583	592	593	589	588	584	584	581	580	577	576	574	574	574	573	571	568	566	558	552	549	547	546	547	548	550	551	550	549	547	548	548	547	545	544	542	542	543	542	539	536	536	536	535	534	533	534	533	533	535	538	537	536	536	0	0	0	0	0	0	0	0	0	0	0	0	0	0	0	532	529	526	527	526	0	524	528	531	533	533	532	0	0	0	0	0	528	0	529	528	0	0	526	524	0	0	0	515	0	514	0	0	0	513	514	513	512	511	512	512	511	510	509	510	509	509	508	507	507	507	506	506	505	506	504	503	0	504	505	504	501	500	502	504	504	503	502	501	502	502	504	502	501	501	503	501	501	500	502	501	501	501	501	501	502	502	502	502	504	504	501	500	0	0	0	0	0	0	0	0	0	500	501	503	503	505	506	506	506	506	507	507	507	507	505	505	505	505	506	506	506	505	504	503	503	503	502	502	501	503	502	503	501	500	0	0
0	3439	3433	3444	3448	3432	3428	3438	3474	3483	3496	3507	3473	3483	3495	3510	3505	3516	3517	3520	3537	3550	3564	3578	0	0	0	0	0	0	0	0	0	0	0	0	0	0	0	0	0	0	0	0	0	0	0	0	0	0	0	0	0	0	0	0	0	0	0	0	0	0	0	0	0	3720	3743	3754	3757	3762	3762	3762	3765	3771	3780	3781	3781	3778	3784	3791	3797	3800	3802	3804	3808	3813	3815	3818	3820	3823	3827	3829	3831	3834	3837	3841	3844	3846	3850	3852	3856	3858	3861	3861	3864	3872	3877	3882	3884	3893	3898	3899	3899	3898	3901	3905	3910	3915	3917	3917	3916	3917	3925	3930	3931	3931	3933	3937	3944	3948	3954	3955	3959	3962	3967	3969	3969	3972	3976	3984	3986	3990	3988	3992	3997	4002	4005	4008	4012	4017	4019	4019	4016	4019	4027	4035	4037	4039	4042	4049	4051	4053	4056	4060	4063	4062	4065	4067	4072	4074	4081	4091	4103	4120	0	0	0	0	1907	1907	1916	1920	1923	1915	1920	1921	1926	1926	1932	1930	1931	1932	1929	1918	1900	0	0	0	0	0	1259	1253	1255	1253	1256	1258	1261	1262	1263	1265	1267	1267	1265	1263	1265	1269	1272	1271	1272	1272	1271	1274	1277	1282	1280	1283	1280	1282	1283	1285	1284	1283	1290	1294	1297	1293	1291	1293	1299	1304	1305	1305	1307	1307	1308	1304	1307	1310	1310	1310	1307	1316	1317	1318	1314	1314	1314	1311	1315	1322	1329	1335	1336	1335	1332	1332	1336	1331	1333	1337	1343	1346	1351	1350	1350	1349	1351	1351	1352	1353	1354	1356	1358	1360	1363	1366	1369	1371	1372	1373	1375	1378	1379	1383	1386	1389	1390	1398	0	0	0	0	588	590	591	585	589	595	595	590	590	587	586	582	579	577	577	575	574	574	574	573	570	569	561	553	550	549	548	548	551	553	553	552	550	549	549	0	548	546	546	0	0	545	544	542	539	538	536	536	534	0	0	533	534	536	538	539	539	0	539	0	0	0	0	0	0	0	0	0	0	0	0	0	539	536	531	527	0	0	525	526	529	532	534	535	0	0	0	0	0	0	0	530	0	0	0	0	526	524	0	0	0	517	0	515	515	513	0	0	0	0	0	511	511	511	510	510	510	510	510	510	509	508	509	508	0	0	506	506	506	506	505	506	506	505	502	502	502	505	505	505	504	503	503	503	504	504	504	504	504	502	501	502	503	503	502	502	501	501	501	502	502	503	504	504	502	502	502	502	501	0	0	0	0	0	0	501	503	504	506	509	510	509	508	507	508	510	509	508	508	509	510	510	509	509	509	509	507	505	504	505	505	504	503	503	503	504	504	502	501	0
0	3424	3435	3442	3439	3426	3443	3461	3455	3477	3489	3481	3470	3477	3487	3487	3524	3513	3508	3503	3514	3535	3540	3528	0	0	0	0	0	0	0	0	0	0	0	0	0	0	0	0	0	0	0	0	0	0	0	0	0	0	0	0	0	0	0	3712	3677	0	0	0	0	0	0	0	0	3731	3741	3748	3752	3756	3759	3761	3764	3768	3776	3778	3779	3778	3785	3791	3796	3797	3798	3800	3805	3811	3815	3816	3814	3816	3818	3822	3825	3830	3832	3835	3838	3844	3848	3850	3851	3852	3856	3858	3862	3867	3871	3876	3880	3889	3893	3894	3891	3892	3895	3900	3904	3908	3913	3912	3912	3913	3922	3928	3930	3931	3933	3937	3940	3944	3949	3951	3955	3959	3964	3965	3965	3968	3972	3978	3982	3987	3987	3989	3994	3998	4000	4002	4005	4010	4014	4015	4015	4017	4024	4030	4033	4037	4042	4048	4052	4053	4054	4058	4060	4060	4063	4066	4069	4068	4075	4086	4104	4117	4160	0	0	0	1914	1907	1907	1912	1915	1915	1919	1925	1929	1927	1926	1929	1928	1930	1931	1926	1916	0	508	0	0	1258	1255	1254	1257	1255	1256	1254	1259	1259	1260	1258	1261	1264	1266	1264	1263	1263	1264	1265	1270	1275	1276	1275	1274	1276	1278	1284	1287	1288	1286	1285	1283	1282	1285	1287	1289	1291	1293	1297	1299	1302	1303	1303	1302	1302	1301	1304	1308	1310	1307	1301	1300	1310	1309	1310	1310	1311	1314	1313	1315	1320	1326	1336	1334	1331	1327	1330	1334	1335	1337	1340	1343	1344	1344	1345	1347	1349	1349	1350	1349	1351	1352	1354	1356	1358	1360	1363	1367	1370	1372	1372	1372	1375	1378	1383	1384	1384	1387	1399	0	517	0	568	584	586	582	577	585	591	590	586	586	585	584	580	577	576	576	574	572	571	571	568	565	565	561	552	548	545	545	545	548	548	549	547	547	545	546	545	546	545	545	544	543	542	541	539	537	536	536	536	534	531	530	531	532	534	535	536	538	537	538	0	0	0	0	0	0	0	0	0	0	0	0	0	539	536	530	525	523	0	0	523	525	527	530	532	533	0	0	0	0	0	0	0	0	531	0	0	0	521	0	0	0	0	0	515	0	0	513	0	0	0	0	0	0	507	0	507	508	508	509	508	506	505	506	506	504	502	503	503	504	505	504	504	503	502	500	500	501	503	502	503	502	501	501	501	502	501	502	500	500	0	500	500	500	0	0	0	0	0	0	0	0	500	502	501	500	500	500	501	0	0	0	0	0	0	0	500	501	502	504	506	506	505	504	505	506	507	507	506	506	506	507	507	507	506	506	505	504	503	503	503	503	502	501	501	500	500	500	0	0	0
0	3401	3427	3439	3423	3430	3443	3468	3464	3467	3478	3491	3488	3479	3482	3501	3469	3498	3511	3495	3505	3513	3524	3498	0	0	0	0	0	0	0	0	0	0	0	0	0	0	0	0	0	0	0	0	0	0	3612	0	0	0	0	0	0	0	0	0	3610	0	0	0	0	0	0	0	3757	3739	3744	3748	3750	3752	3759	3763	3764	3767	3774	3777	3780	3781	3788	3792	3793	3795	3796	3801	3802	3808	3811	3814	3814	3815	3816	3819	3822	3827	3831	3837	3841	3845	3847	3848	3850	3852	3855	3861	3864	3868	3871	3874	3877	3883	3887	3888	3888	3891	3894	3901	3905	3910	3912	3913	3915	3917	3921	3926	3929	3933	3936	3939	3942	3944	3948	3951	3957	3961	3963	3964	3965	3968	3971	3975	3980	3987	3991	3992	3994	3999	4002	4004	4005	4010	4014	4017	4019	4019	4025	4029	4034	4038	4042	4048	4051	4053	4056	4058	4060	4059	4062	4066	4071	4070	4076	4085	4100	4115	4135	0	0	0	1928	1908	1905	1908	1913	1914	1917	1922	1924	1926	1928	1926	1922	1922	1927	1931	1923	0	0	0	0	1256	1251	1253	1255	1256	1255	1250	1256	1254	1258	1256	1259	1261	1265	1264	1264	1262	1262	1263	1273	1280	1283	1278	1275	1272	1277	1282	1289	1289	1288	1285	1284	1285	1288	1291	1293	1294	1298	1298	1300	1301	1303	1301	1297	1297	1301	1305	1308	1307	1306	1301	1303	1309	1311	1313	1318	1321	1320	1318	1318	1321	1329	1335	1334	1326	1325	1330	1334	1337	1336	1341	1341	1342	1343	1345	1350	1352	1351	1351	1351	1353	1354	1355	1357	1359	1362	1364	1367	1371	1374	1374	1373	1375	1378	1384	1384	1386	1391	0	0	0	551	574	574	569	570	577	589	594	592	587	585	584	583	580	577	575	574	573	572	571	569	567	565	565	563	555	550	547	547	547	548	548	549	549	548	548	548	0	0	0	546	545	544	0	542	540	539	539	539	0	535	0	0	532	533	535	535	538	539	539	538	0	0	534	0	0	0	0	0	0	0	0	0	0	542	538	532	0	0	523	0	525	527	529	532	534	535	0	0	0	0	0	0	0	0	0	0	527	524	522	0	0	0	0	516	516	517	514	0	0	0	0	0	0	0	0	0	0	0	0	0	509	507	506	506	506	505	0	503	504	505	506	505	505	504	0	503	503	504	505	503	504	502	503	501	502	502	502	503	502	502	501	501	501	501	501	500	0	500	500	500	0	500	501	502	502	501	502	502	503	503	500	0	0	0	0	0	0	502	504	505	508	508	507	507	507	508	509	509	508	509	509	510	509	509	508	508	508	506	505	504	504	505	505	504	502	502	502	502	500	500	0
0	3405	3448	3419	3430	3427	3449	3457	3469	3479	3492	3505	3496	3479	3493	3485	3470	3493	3502	3511	3500	3515	3523	3521	3494	3543	3575	3547	0	0	0	0	0	0	0	0	0	0	0	0	0	0	0	0	0	0	0	0	0	0	0	0	0	0	0	3597	0	0	0	0	0	0	3666	3747	3723	3738	3746	3744	3746	3745	3754	3759	3763	3765	3769	3773	3778	3782	3788	3788	3787	3788	3790	3796	3796	3803	3804	3808	3807	3809	3811	3816	3820	3825	3828	3833	3838	3842	3843	3844	3848	3852	3857	3862	3866	3868	3870	3871	3875	3880	3882	3883	3883	3888	3893	3900	3905	3909	3909	3910	3913	3918	3923	3924	3926	3931	3935	3936	3937	3941	3945	3947	3952	3954	3957	3957	3960	3962	3968	3972	3980	3982	3986	3987	3992	3996	4000	4001	4004	4009	4013	4014	4016	4016	4022	4025	4031	4033	4041	4044	4048	4047	4051	4054	4056	4058	4061	4066	4069	4069	4074	4082	4098	4113	4140	0	0	0	1914	1905	1902	1907	1910	1911	1911	1913	1915	1922	1920	1921	1916	1920	1919	1922	1908	0	0	0	0	1257	1251	1252	1252	1254	1252	1248	1250	1250	1252	1251	1254	1260	1264	1264	1263	1263	1261	1261	1268	1275	1277	1272	1274	1272	1279	1278	1282	1283	1286	1283	1283	1285	1286	1288	1290	1295	1296	1294	1296	1299	1304	1300	1294	1294	1297	1305	1309	1308	1308	1307	1308	1315	1311	1314	1315	1317	1320	1318	1320	1319	1324	1332	1335	1328	1325	1330	1335	1335	1333	1333	1332	1337	1343	1348	1348	1349	1348	1347	1349	1352	1354	1353	1353	1355	1358	1362	1364	1369	1371	1373	1372	1374	1377	1381	1382	1384	1390	0	0	546	559	563	563	561	568	579	590	590	587	584	581	580	579	577	574	572	571	571	571	569	566	563	561	560	559	554	550	545	545	544	545	545	546	547	546	546	546	545	0	543	543	543	0	541	539	538	538	538	538	537	534	531	529	0	0	532	532	535	537	538	536	0	0	0	0	0	0	0	0	0	0	0	0	0	540	536	528	0	0	0	521	0	524	527	530	531	532	0	0	0	0	0	0	0	0	528	529	0	524	0	0	0	0	0	0	0	0	0	0	0	0	0	0	0	0	0	0	0	507	0	0	505	505	504	505	504	503	0	0	503	505	505	504	503	503	502	502	502	503	503	501	500	0	0	0	0	0	0	0	0	0	0	500	0	0	0	0	0	0	0	0	0	0	0	500	501	500	500	0	0	0	0	0	0	0	0	0	0	0	500	501	503	503	504	504	505	506	506	506	506	506	506	506	505	505	505	505	505	504	503	502	502	502	501	502	501	501	500	500	0	0	0
0	3413	3418	3395	3412	3414	3426	3460	3467	3486	3496	3495	3484	3472	3475	3482	3481	3506	3524	3513	3512	3518	3534	3538	3542	3535	3551	0	0	0	0	0	0	0	0	0	0	0	0	514	0	0	0	0	0	0	0	0	3727	0	0	0	0	0	0	0	0	0	0	0	0	3648	3666	3626	3724	3726	3735	3738	3744	3747	3755	3760	3763	3767	3769	3774	3778	3783	3785	3785	3785	3789	3793	3798	3797	3801	3802	3807	3807	3809	3813	3819	3823	3828	3830	3835	3842	3846	3845	3844	3850	3856	3859	3861	3866	3871	3874	3873	3877	3880	3884	3883	3885	3892	3894	3899	3902	3909	3910	3911	3913	3917	3920	3922	3925	3929	3931	3932	3935	3942	3946	3948	3950	3952	3955	3956	3960	3963	3968	3972	3977	3980	3982	3986	3989	3995	4000	4004	4007	4011	4014	4016	4017	4018	4024	4027	4030	4030	4036	4040	4044	4047	4051	4054	4054	4057	4061	4066	4068	4070	4073	4080	4093	4115	4152	0	4209	0	1904	1899	1905	1909	1917	1916	1911	1911	1920	1924	1922	1919	1918	1921	1918	1910	1891	0	0	0	0	1260	1253	1251	1252	1253	1253	1248	1250	1249	1255	1256	1259	1264	1263	1261	1259	1263	1264	1264	1269	1269	1270	1267	1273	1273	1278	1275	1277	1281	1289	1287	1283	1279	1283	1288	1297	1297	1296	1290	1297	1300	1302	1300	1296	1296	1298	1303	1308	1304	1306	1309	1317	1320	1322	1319	1323	1322	1325	1323	1323	1322	1326	1329	1333	1329	1330	1330	1337	1335	1333	1331	1330	1335	1344	1351	1350	1349	1349	1350	1351	1353	1355	1355	1355	1356	1359	1363	1365	1370	1372	1374	1373	1375	1377	1380	1382	1387	1395	0	0	0	569	568	569	574	576	585	593	591	588	584	582	581	579	578	574	572	571	571	571	569	567	566	564	563	560	557	553	548	546	545	546	547	547	549	548	547	547	0	545	544	544	544	543	0	0	0	540	539	539	0	535	534	531	0	0	533	534	537	539	540	539	0	0	0	0	0	0	0	0	0	0	0	0	0	541	537	530	525	0	0	0	525	526	529	531	533	533	0	0	0	0	0	0	0	0	0	0	0	0	0	0	0	0	0	0	0	514	0	511	0	0	0	0	0	0	0	0	0	0	0	0	506	508	0	0	505	0	0	0	505	506	506	506	505	504	0	503	504	503	503	501	501	0	500	0	500	0	0	500	500	500	0	501	0	0	0	0	0	0	0	0	500	500	0	0	501	501	501	0	500	0	0	0	0	0	0	0	0	0	0	501	502	503	505	506	508	508	508	507	507	508	510	510	508	508	508	508	507	505	504	504	504	505	505	504	503	503	503	502	502	500	0
0	3436	3437	3426	3414	3414	3443	3470	3474	3487	3488	3493	3480	3473	3470	3470	3485	3510	3527	3528	3528	3525	3530	3542	3549	3551	3542	3508	0	0	0	0	0	0	0	0	0	0	0	0	0	0	0	0	0	0	0	0	0	0	0	0	0	0	0	0	0	0	0	0	0	3658	0	0	3718	3722	3732	3735	3746	3749	3756	3756	3762	3765	3766	3770	3774	3780	3779	3780	3783	3786	3788	3792	3796	3800	3802	3804	3805	3807	3812	3818	3822	3825	3827	3830	3833	3839	3842	3845	3849	3854	3856	3856	3859	3865	3872	3872	3875	3876	3881	3882	3885	3890	3892	3894	3895	3899	3902	3906	3908	3912	3914	3917	3918	3922	3925	3928	3929	3935	3942	3945	3948	3948	3950	3951	3955	3959	3963	3968	3975	3977	3978	3982	3985	3991	3995	4000	4005	4008	4011	4011	4014	4016	4021	4022	4023	4024	4031	4036	4042	4045	4048	4052	4051	4056	4059	4062	4063	4064	4067	4074	4087	4112	4195	4171	0	0	1903	1902	1905	1905	1913	1913	1909	1907	1920	1921	1915	1913	1916	1923	1917	1910	1877	0	0	0	0	0	1248	1247	1248	1252	1253	1253	1252	1254	1254	1253	1256	1260	1260	1259	1257	1262	1265	1265	1267	1266	1267	1266	1269	1271	1275	1275	1278	1280	1288	1288	1284	1277	1280	1286	1295	1296	1293	1289	1295	1298	1299	1297	1296	1293	1293	1297	1303	1301	1302	1306	1312	1315	1311	1314	1317	1316	1321	1319	1318	1318	1318	1321	1322	1324	1329	1330	1335	1333	1335	1330	1331	1333	1345	1350	1346	1345	1345	1347	1349	1351	1353	1353	1353	1355	1357	1361	1364	1367	1369	1370	1372	1373	1375	1376	1379	1383	1391	0	0	561	568	568	572	570	576	584	592	589	583	580	578	578	576	575	572	571	571	571	570	566	564	563	562	561	558	557	552	547	544	543	543	544	545	545	545	544	545	544	544	543	544	542	541	539	539	538	0	537	538	536	534	533	532	531	530	531	531	533	536	538	539	0	0	0	0	0	0	0	0	0	0	0	0	0	539	536	529	524	522	0	0	523	525	526	529	531	532	531	0	0	0	0	0	0	0	0	0	0	0	0	0	0	0	0	0	0	0	0	0	510	0	512	510	0	0	0	0	0	504	0	505	505	505	505	504	503	502	0	0	503	504	503	504	502	502	501	501	501	500	0	500	0	0	0	0	0	0	0	0	0	0	0	0	0	0	0	0	0	0	0	0	0	0	0	0	0	0	0	0	0	0	0	0	0	0	0	0	0	0	0	0	0	0	500	503	505	505	505	505	506	507	506	506	504	505	505	505	505	503	502	501	501	502	502	501	500	500	500	500	500	0	0
0	3418	3427	3434	3400	3432	3450	3468	3499	3485	3477	3495	3499	3465	3476	3478	3491	3493	3513	3521	3527	3531	3532	3535	3538	3555	3545	3540	0	0	0	0	0	0	0	0	0	0	0	0	0	0	0	0	0	0	0	0	0	0	0	0	0	3653	0	0	0	0	0	0	3663	3649	3646	3658	0	3721	3731	3738	3749	3755	3758	3757	3761	3764	3767	3769	3772	3775	3775	3779	3782	3786	3788	3793	3798	3802	3804	3805	3810	3813	3818	3819	3821	3825	3829	3831	3833	3839	3844	3849	3848	3853	3851	3853	3855	3862	3868	3869	3871	3873	3880	3883	3885	3888	3889	3891	3893	3897	3902	3905	3905	3908	3910	3917	3918	3923	3924	3928	3930	3936	3941	3947	3950	3951	3953	3953	3958	3961	3965	3968	3974	3979	3982	3984	3986	3990	3993	3996	4002	4008	4009	4010	4013	4018	4021	4022	4024	4028	4029	4034	4038	4046	4048	4051	4052	4055	4059	4058	4061	4066	4071	4077	4088	4109	4152	0	0	1908	1903	1901	1906	1906	1909	1906	1910	1913	1923	1921	1915	1911	1915	1915	1916	1920	0	0	0	0	0	0	1249	1248	1250	1252	1253	1254	1259	1257	1258	1256	1259	1260	1263	1262	1261	1259	1264	1267	1267	1267	1271	1269	1269	1270	1275	1278	1281	1283	1286	1285	1281	1278	1281	1287	1293	1294	1290	1289	1294	1299	1299	1299	1297	1299	1299	1301	1302	1301	1299	1302	1308	1312	1314	1314	1315	1315	1315	1321	1320	1319	1316	1319	1322	1328	1333	1333	1337	1335	1341	1338	1340	1340	1345	1349	1347	1347	1347	1350	1351	1353	1353	1355	1355	1357	1359	1363	1366	1368	1369	1370	1372	1374	1377	1376	1379	1383	1393	0	0	553	573	571	571	570	573	583	595	592	585	580	578	578	577	576	573	573	573	572	570	566	565	565	563	563	561	561	556	550	545	544	542	544	545	546	546	546	547	545	0	0	0	544	541	540	541	540	0	0	540	538	537	536	534	533	531	532	0	533	535	538	542	0	0	0	0	0	0	0	0	0	0	0	0	0	542	540	534	528	0	0	0	0	0	527	529	532	0	0	0	0	0	0	0	0	0	0	0	0	0	0	0	0	0	0	0	0	0	0	0	0	0	0	0	0	0	0	0	0	507	0	0	508	507	507	504	504	0	0	504	505	505	504	503	504	503	503	502	502	501	501	501	502	501	501	500	0	0	0	0	0	0	0	0	0	0	0	0	0	0	0	0	0	0	0	0	0	500	0	0	0	0	0	0	0	0	0	0	0	0	0	0	0	0	500	502	504	505	507	507	508	509	508	509	508	507	507	507	506	505	504	503	503	504	502	500	0	501	502	502	501	501	0
0	3428	3419	3408	3437	3432	3450	3474	3496	3485	3483	3493	3477	3464	3475	3492	3489	3491	3497	3513	3516	3519	3529	3528	3523	3538	3549	3556	3546	3537	0	0	3542	0	0	0	0	0	0	0	0	0	0	0	0	0	0	0	0	0	0	0	0	3669	0	3712	0	0	0	0	0	3629	0	0	3686	3731	3740	3743	3749	3752	3756	3753	3758	3759	3762	3764	3768	3771	3774	3778	3782	3782	3782	3786	3795	3799	3801	3803	3807	3813	3815	3814	3814	3817	3825	3827	3829	3831	3836	3841	3842	3847	3847	3850	3852	3857	3862	3866	3868	3871	3878	3882	3881	3883	3886	3891	3894	3897	3899	3904	3906	3911	3912	3917	3916	3920	3922	3927	3929	3934	3938	3942	3944	3948	3951	3953	3956	3958	3963	3966	3972	3977	3981	3983	3986	3988	3990	3991	3996	4002	4006	4007	4008	4012	4014	4015	4021	4025	4027	4029	4034	4040	4044	4046	4050	4051	4055	4053	4057	4062	4070	4077	4089	4110	4157	0	0	0	1897	1893	1901	1903	1903	1897	1906	1916	1921	1916	1908	1910	1909	1911	1913	1917	0	0	0	0	0	1253	1246	1249	1251	1253	1252	1256	1257	1254	1253	1253	1257	1256	1260	1261	1260	1258	1259	1264	1265	1266	1271	1270	1268	1270	1274	1274	1275	1279	1281	1279	1283	1285	1286	1285	1288	1286	1284	1284	1289	1298	1298	1301	1299	1306	1307	1308	1307	1302	1297	1297	1302	1306	1309	1309	1306	1307	1312	1319	1317	1316	1312	1317	1320	1326	1327	1330	1333	1333	1338	1337	1340	1337	1342	1346	1345	1345	1345	1347	1348	1348	1349	1351	1353	1354	1356	1359	1364	1364	1366	1367	1370	1372	1374	1375	1378	1382	1393	0	518	556	570	567	564	570	578	585	593	589	583	579	577	576	574	573	572	571	570	569	568	566	563	563	561	559	557	556	555	549	544	541	540	540	541	542	543	544	544	543	542	542	543	541	0	0	539	538	538	539	539	536	535	534	533	531	0	528	529	529	531	534	538	0	536	0	0	0	0	0	0	0	0	0	0	0	0	538	533	527	0	0	0	0	0	523	527	528	529	529	0	0	0	0	0	0	0	0	0	0	0	0	0	0	0	0	0	0	514	0	0	515	513	513	0	510	0	0	506	507	507	507	506	505	505	505	502	501	500	501	502	502	502	502	502	502	502	502	501	500	500	0	500	0	0	0	0	0	0	0	0	0	0	0	0	0	0	0	0	0	0	0	0	0	0	0	0	0	0	0	0	0	0	0	0	0	0	0	0	0	0	0	0	0	0	500	501	501	502	503	504	505	505	505	505	504	504	503	503	503	503	502	500	0	500	0	0	0	0	0	0	0	0	0
0	3414	3406	3415	3432	3446	3442	3473	3471	3470	3476	3481	3470	3461	3480	3496	3503	3503	3505	3523	3528	3523	3520	3530	3535	3541	3544	3541	3551	3551	3538	3517	0	0	0	0	0	0	0	0	0	0	0	0	0	0	0	0	0	0	0	0	0	0	0	0	0	0	0	0	0	0	0	3644	3696	3728	3733	3738	3745	3751	3753	3754	3756	3759	3762	3764	3766	3768	3775	3780	3782	3782	3785	3788	3794	3797	3802	3803	3807	3810	3812	3811	3813	3818	3826	3829	3830	3831	3834	3839	3842	3847	3846	3849	3850	3858	3862	3867	3870	3875	3880	3882	3881	3883	3885	3890	3894	3898	3901	3903	3905	3910	3912	3918	3921	3924	3925	3928	3932	3938	3942	3944	3945	3949	3953	3955	3957	3959	3964	3969	3972	3976	3980	3984	3985	3987	3989	3990	3993	4001	4005	4010	4009	4012	4013	4016	4023	4026	4027	4029	4034	4039	4043	4045	4048	4051	4055	4057	4057	4062	4070	4078	4090	4111	4155	4168	0	1905	1892	1889	1902	1903	1906	1900	1910	1921	1926	1924	1917	1910	1907	1911	1911	1901	0	558	0	0	0	1253	1249	1251	1256	1257	1255	1254	1254	1253	1254	1255	1258	1258	1260	1261	1263	1263	1261	1263	1263	1267	1270	1268	1267	1272	1276	1274	1272	1276	1277	1276	1285	1290	1291	1286	1286	1284	1285	1288	1291	1298	1296	1302	1300	1310	1308	1310	1302	1300	1295	1298	1301	1306	1309	1311	1306	1309	1314	1323	1323	1320	1314	1316	1321	1326	1324	1327	1338	1342	1342	1337	1336	1337	1340	1346	1346	1346	1347	1348	1348	1349	1350	1352	1353	1355	1358	1361	1365	1366	1367	1369	1372	1375	1377	1378	1382	1386	1396	0	531	563	575	571	566	579	581	586	593	590	584	580	577	577	575	575	573	572	570	569	568	567	566	566	563	560	558	557	556	551	547	543	541	540	541	542	543	545	545	545	543	544	543	542	0	0	540	539	0	0	0	0	538	0	0	0	0	0	0	0	532	535	538	538	538	0	0	0	0	0	0	0	0	0	0	0	0	540	536	529	0	0	0	0	524	525	527	529	529	529	0	0	0	0	0	0	0	0	0	0	0	0	0	0	0	0	0	0	0	0	0	0	0	0	0	0	0	0	507	507	508	0	507	507	507	507	0	0	0	0	503	503	503	503	503	503	501	501	501	501	501	500	500	0	0	500	500	500	0	0	0	0	0	0	0	0	0	0	0	0	0	0	0	0	0	0	0	0	0	0	0	0	0	0	0	0	0	0	0	0	0	0	0	0	502	504	504	504	504	504	505	506	506	506	506	507	506	505	505	505	504	504	503	502	502	501	500	500	502	502	502	501	501	0
0	3381	3381	3409	3434	3446	3454	3459	3466	3478	3481	3479	3478	3476	3482	3498	3513	3508	3505	3499	3535	3547	3533	3527	3548	3546	3539	3543	3548	3560	3559	3544	3546	3612	0	0	0	0	0	0	0	0	0	3601	0	0	0	0	0	0	0	0	0	0	0	0	0	0	3722	0	0	3600	0	3680	3704	3722	3729	3735	3744	3749	3751	3749	3754	3756	3761	3763	3765	3766	3773	3777	3780	3779	3782	3783	3789	3791	3798	3801	3804	3805	3805	3806	3810	3816	3822	3824	3824	3824	3830	3834	3838	3842	3846	3850	3851	3857	3862	3866	3869	3872	3874	3877	3878	3884	3884	3888	3888	3891	3894	3900	3905	3909	3908	3912	3916	3921	3924	3926	3929	3934	3938	3941	3943	3945	3949	3950	3952	3955	3959	3964	3968	3973	3976	3979	3981	3984	3987	3990	3991	3997	4001	4009	4010	4012	4012	4015	4022	4024	4029	4031	4036	4038	4042	4043	4045	4048	4052	4057	4057	4060	4063	4071	4082	4098	4152	4169	0	1897	1890	1888	1901	1902	1909	1904	1910	1918	1927	1929	1921	1916	1914	1918	1918	1911	0	0	515	0	0	1249	1243	1245	1247	1252	1252	1252	1248	1250	1251	1251	1252	1254	1258	1258	1258	1264	1261	1264	1260	1268	1270	1270	1267	1270	1271	1271	1269	1273	1273	1275	1281	1285	1286	1283	1284	1282	1287	1285	1288	1291	1295	1296	1294	1299	1300	1298	1301	1304	1305	1303	1302	1305	1306	1306	1301	1305	1311	1316	1316	1313	1313	1314	1319	1322	1318	1323	1334	1341	1333	1329	1327	1332	1335	1342	1342	1344	1344	1345	1345	1346	1348	1350	1351	1353	1356	1359	1362	1364	1364	1368	1370	1372	1373	1376	1382	1386	0	0	539	567	576	573	571	581	586	589	590	586	581	577	572	572	571	571	570	569	568	566	565	564	564	563	561	557	555	553	552	550	546	542	539	538	539	539	541	542	543	543	543	543	542	540	540	539	0	0	0	0	538	537	536	534	532	532	530	0	526	528	530	531	534	536	536	0	0	0	0	0	0	0	0	0	0	0	0	537	534	527	0	0	0	0	523	523	525	527	529	528	0	0	0	0	0	0	0	0	0	0	0	0	0	0	0	0	0	0	0	0	0	0	0	512	0	512	511	507	0	504	506	506	505	504	504	503	503	502	502	501	500	500	501	501	502	500	0	0	0	0	0	0	0	0	0	0	0	0	0	0	0	0	0	0	0	0	0	0	0	0	0	0	0	0	0	0	0	0	0	0	0	0	0	0	0	0	0	0	0	0	0	0	0	0	0	502	502	501	501	501	502	503	503	502	502	502	504	504	504	503	502	501	500	500	500	501	500	0	500	500	0	0	0	0
0	3357	3391	3402	3424	3451	3462	3456	3466	3474	3487	3500	3495	3477	3476	3501	3517	3495	3480	3493	3504	3550	3531	3536	3543	3542	3540	3537	3553	3568	3566	3566	3572	3595	0	0	0	0	0	0	0	0	0	0	0	0	0	0	0	0	0	0	0	0	3585	0	0	0	0	0	0	0	0	3685	3705	3717	3722	3730	3741	3747	3749	3749	3757	3759	3762	3761	3765	3765	3772	3777	3780	3780	3783	3787	3791	3791	3798	3804	3808	3807	3808	3807	3811	3815	3820	3822	3821	3826	3830	3837	3836	3840	3843	3852	3854	3862	3864	3868	3867	3868	3869	3874	3879	3882	3881	3882	3887	3892	3895	3898	3900	3904	3904	3910	3916	3923	3925	3927	3928	3934	3940	3942	3944	3943	3947	3948	3952	3956	3960	3965	3968	3972	3975	3978	3981	3984	3986	3991	3992	3997	3998	4005	4007	4011	4011	4014	4021	4026	4030	4031	4035	4040	4044	4045	4045	4047	4052	4058	4061	4062	4064	4070	4081	4105	4149	0	0	1907	1895	1886	1898	1902	1910	1904	1908	1913	1925	1928	1926	1923	1919	1917	1918	1921	0	0	0	0	0	1246	1241	1241	1248	1253	1253	1253	1250	1255	1253	1254	1252	1257	1259	1259	1259	1264	1265	1265	1264	1271	1269	1270	1267	1273	1274	1278	1275	1273	1274	1278	1283	1284	1286	1287	1289	1290	1293	1289	1287	1288	1291	1291	1292	1291	1296	1295	1297	1304	1303	1304	1299	1306	1305	1310	1306	1312	1314	1314	1316	1315	1319	1319	1323	1324	1324	1325	1332	1333	1330	1328	1330	1336	1338	1344	1343	1344	1345	1347	1348	1349	1351	1351	1353	1355	1358	1361	1363	1365	1365	1368	1370	1373	1375	1376	1382	1387	0	0	0	0	570	570	573	583	589	593	591	589	583	578	573	572	571	571	569	568	568	566	564	563	563	563	561	559	558	556	554	552	548	544	541	540	539	541	542	545	544	545	545	546	0	0	540	539	538	0	532	0	0	0	0	0	534	0	0	531	0	529	531	533	535	538	538	0	0	0	0	0	0	0	0	0	0	0	0	540	536	529	0	0	0	0	0	0	526	528	530	0	0	0	0	0	0	0	0	0	0	0	523	0	0	0	0	0	0	0	0	0	0	0	0	0	0	0	0	0	507	0	0	0	507	505	505	505	0	505	504	0	501	501	0	0	0	0	500	0	0	500	0	0	0	0	0	0	0	0	0	0	0	0	0	0	0	0	0	0	0	0	0	0	0	0	0	0	0	0	0	0	0	0	0	0	0	0	0	0	0	0	0	0	0	0	0	501	503	503	503	503	504	505	504	504	504	504	506	506	506	505	505	502	502	501	503	504	504	503	501	500	0	0	500	0
0	3388	3402	3419	3421	3457	3466	3459	3467	3462	3485	3505	3524	3492	3487	3495	3504	3490	3487	3487	3501	3509	3514	3518	3538	3539	3535	3546	3561	3564	3573	3567	3576	3593	3589	0	0	0	0	0	0	0	0	0	0	0	0	0	0	0	0	0	0	0	0	0	0	0	0	3723	3732	3693	3679	3710	3711	3720	3726	3732	3740	3742	3746	3744	3752	3752	3756	3754	3759	3762	3769	3771	3775	3775	3779	3784	3785	3785	3790	3797	3803	3807	3808	3807	3808	3813	3818	3819	3821	3825	3830	3835	3835	3838	3843	3852	3854	3859	3860	3865	3862	3864	3865	3872	3875	3876	3874	3878	3885	3893	3896	3900	3900	3902	3903	3906	3911	3916	3920	3923	3924	3928	3932	3938	3939	3939	3941	3943	3950	3952	3957	3960	3964	3967	3971	3974	3978	3980	3984	3986	3987	3990	3992	3997	4000	4006	4009	4012	4017	4022	4026	4028	4032	4035	4039	4039	4042	4043	4047	4053	4057	4060	4059	4064	4080	4112	4173	0	0	1898	1891	1890	1896	1906	1907	1904	1906	1909	1917	1917	1918	1921	1921	1918	1918	1923	0	0	624	0	0	1239	1238	1239	1244	1248	1251	1252	1248	1250	1247	1250	1251	1258	1261	1257	1255	1255	1255	1257	1258	1266	1267	1269	1265	1268	1270	1276	1278	1276	1278	1279	1283	1283	1285	1286	1289	1292	1293	1287	1286	1287	1291	1289	1288	1289	1296	1298	1304	1306	1307	1305	1297	1303	1306	1313	1311	1316	1314	1312	1308	1311	1319	1324	1327	1328	1328	1327	1322	1322	1322	1326	1328	1333	1336	1341	1340	1342	1343	1344	1346	1347	1348	1348	1351	1352	1356	1358	1360	1361	1361	1364	1365	1370	1372	1374	1378	1383	0	0	0	0	564	567	574	576	590	592	590	586	580	577	572	570	568	567	566	565	565	564	562	561	558	558	557	556	555	553	552	550	546	542	539	538	538	538	540	542	542	542	541	542	541	539	0	0	0	0	0	0	534	0	535	535	534	534	532	0	527	0	528	530	532	534	536	536	0	0	0	0	0	0	0	0	0	0	0	0	536	528	523	0	0	0	0	521	522	524	528	530	530	0	0	0	0	0	0	0	0	0	0	0	0	0	0	0	0	0	0	0	0	0	0	0	0	509	0	0	504	0	507	506	506	504	504	503	505	503	502	500	500	0	0	501	502	501	500	0	0	0	0	0	0	0	0	0	0	0	0	0	0	0	0	0	0	0	0	0	0	0	0	0	0	0	0	0	0	0	0	0	0	0	0	0	0	0	0	0	0	0	0	0	0	0	0	0	0	0	0	0	500	501	502	502	501	502	503	503	502	502	502	0	0	0	500	501	501	501	0	0	0	0	0	0
0	3409	3433	3438	3444	3413	3470	3455	3453	3460	3451	3484	3495	3507	3506	3497	3486	3498	3502	3503	3512	3514	3515	3527	3551	3551	3551	3549	3556	3552	3555	3564	3571	3587	3584	3572	3569	0	0	0	0	0	0	0	0	0	0	0	0	0	0	0	0	0	0	0	0	0	0	0	0	0	3655	3712	3712	3720	3729	3735	3740	3740	3744	3746	3751	3753	3755	3755	3756	3762	3768	3770	3771	3775	3779	3783	3784	3788	3791	3796	3799	3804	3806	3806	3809	3812	3817	3818	3824	3827	3833	3836	3838	3841	3844	3851	3852	3858	3860	3866	3863	3865	3868	3874	3877	3875	3873	3877	3885	3897	3900	3900	3899	3904	3907	3909	3910	3912	3915	3921	3923	3928	3932	3939	3940	3940	3942	3947	3953	3954	3957	3958	3961	3966	3972	3976	3978	3979	3983	3986	3987	3987	3990	3993	3998	4004	4009	4011	4013	4019	4023	4026	4029	4034	4038	4040	4040	4043	4045	4052	4055	4059	4058	4066	4080	4119	4193	0	0	1908	1897	1894	1898	1900	1907	1907	1906	1904	1909	1910	1916	1916	1916	1911	1912	1907	0	0	564	0	0	1239	1241	1244	1247	1250	1250	1253	1250	1254	1252	1255	1256	1260	1259	1257	1253	1254	1257	1260	1263	1264	1265	1265	1264	1268	1270	1275	1278	1277	1281	1285	1290	1289	1287	1288	1289	1292	1293	1291	1291	1292	1293	1292	1291	1290	1299	1304	1305	1303	1301	1303	1299	1303	1306	1314	1315	1320	1317	1316	1309	1315	1319	1324	1324	1327	1326	1323	1319	1321	1325	1329	1332	1337	1346	1346	1340	1342	1343	1345	1346	1347	1349	1349	1353	1355	1358	1359	1360	1361	1361	1364	1366	1371	1371	1374	1378	1387	0	0	0	564	577	568	572	572	586	595	592	587	582	578	575	573	569	567	566	566	566	566	563	562	559	560	559	559	557	554	551	549	547	544	541	539	538	538	540	541	541	542	541	541	541	0	0	0	0	0	534	0	0	536	0	0	0	0	0	0	0	530	0	530	531	534	536	537	0	535	0	0	0	0	0	0	0	0	0	0	539	531	0	521	0	0	0	0	523	525	527	530	530	0	0	0	0	0	0	0	0	0	0	0	0	0	0	0	0	0	0	0	0	0	0	0	0	0	0	0	506	0	0	0	0	507	0	506	0	503	502	503	502	503	0	502	0	0	500	0	0	0	0	0	0	0	0	0	0	0	0	0	0	0	0	0	0	0	0	0	0	0	0	0	0	0	0	0	0	0	0	0	0	0	0	0	0	0	0	0	0	0	0	0	0	0	0	0	500	501	502	501	501	503	503	504	504	504	505	503	503	503	504	502	501	500	502	503	503	503	501	0	0	500	501	0
0	3433	3443	3444	3437	3438	3436	3457	3463	3453	3453	3461	3485	3505	3508	3500	3488	3489	3512	3508	3506	3520	3522	3534	3554	3560	3555	3554	3554	3545	3545	3558	3593	3602	3581	3577	3589	0	0	0	0	0	0	0	0	0	0	0	3590	3664	0	0	0	0	0	0	0	0	0	0	0	0	0	3693	3704	3721	3730	3735	3737	3736	3741	3743	3746	3750	3753	3755	3756	3761	3766	3765	3766	3770	3776	3781	3783	3788	3789	3792	3794	3798	3801	3806	3810	3812	3813	3815	3821	3825	3831	3833	3839	3841	3844	3845	3847	3853	3857	3860	3863	3864	3868	3872	3874	3876	3874	3878	3882	3892	3896	3898	3899	3902	3907	3907	3907	3907	3913	3917	3919	3920	3925	3935	3937	3939	3941	3945	3948	3949	3952	3952	3957	3964	3969	3972	3974	3975	3980	3982	3986	3984	3989	3990	3997	4002	4008	4009	4010	4015	4020	4025	4027	4031	4033	4034	4035	4039	4042	4048	4051	4057	4058	4066	4081	4110	4180	4176	0	1913	1899	1892	1895	1899	1905	1908	1907	1902	1903	1906	1911	1913	1907	1907	1905	1914	0	0	0	0	0	1247	1244	1243	1243	1246	1246	1247	1249	1254	1253	1254	1253	1252	1252	1250	1250	1252	1256	1260	1262	1264	1266	1266	1263	1262	1262	1265	1269	1273	1278	1280	1285	1283	1282	1281	1281	1284	1287	1289	1289	1290	1290	1293	1289	1289	1293	1302	1304	1298	1298	1300	1305	1302	1305	1308	1313	1316	1311	1312	1305	1312	1311	1320	1325	1329	1326	1322	1318	1321	1323	1330	1330	1334	1345	1345	1337	1339	1339	1342	1342	1344	1346	1348	1351	1352	1355	1356	1357	1359	1359	1362	1364	1369	1367	1369	1373	1385	0	0	552	574	577	571	567	572	591	592	587	582	578	575	572	568	565	562	563	563	564	563	562	561	558	558	557	557	555	551	549	547	547	544	540	537	535	535	537	537	538	539	539	538	539	538	0	534	0	0	533	0	0	532	0	0	0	0	0	0	530	0	0	0	526	528	532	533	535	535	0	0	0	0	0	0	0	0	0	0	539	531	524	0	0	0	0	0	521	523	526	527	0	528	0	0	0	0	0	0	0	0	0	0	0	0	0	0	0	0	0	0	0	0	0	0	0	508	0	0	505	505	503	504	505	505	502	502	501	501	500	501	501	501	500	500	500	0	0	0	0	0	0	0	0	0	0	0	0	0	0	0	0	0	0	0	0	0	0	0	0	0	0	0	0	0	0	0	0	0	0	0	0	0	0	0	0	0	0	0	0	0	0	0	0	0	0	0	0	0	0	0	0	0	500	500	501	500	501	500	500	501	501	500	0	500	500	500	500	500	0	0	0	0	0	0
0	3455	3446	3429	3429	3422	3427	3434	3460	3452	3454	3471	3495	3504	3506	3501	3496	3512	3510	3516	3524	3522	3536	3544	3554	3545	3550	3557	3558	3541	3544	3562	3583	3598	3589	3581	3594	3592	3577	0	0	0	0	0	0	0	0	0	0	3641	0	0	0	0	0	0	0	0	0	0	0	3658	0	3697	3715	3723	3731	3733	3735	3735	3740	3741	3745	3749	3753	3757	3759	3763	3766	3766	3767	3773	3778	3786	3788	3793	3792	3794	3795	3796	3800	3807	3812	3813	3812	3816	3821	3827	3830	3831	3836	3840	3842	3842	3842	3847	3852	3857	3862	3864	3867	3870	3874	3879	3878	3882	3883	3890	3892	3894	3897	3901	3906	3907	3909	3910	3915	3918	3919	3921	3925	3934	3938	3940	3943	3945	3949	3951	3952	3955	3959	3969	3972	3973	3973	3976	3980	3984	3985	3984	3987	3990	3997	4001	4006	4007	4011	4017	4022	4025	4027	4029	4033	4034	4035	4037	4041	4045	4051	4056	4061	4068	4076	4102	4149	4169	0	1906	1900	1890	1895	1895	1901	1906	1907	1901	1897	1903	1912	1911	1904	1903	1911	1922	0	0	0	0	0	1251	1243	1241	1242	1247	1247	1248	1247	1252	1252	1254	1253	1251	1248	1246	1249	1256	1261	1265	1268	1267	1268	1265	1264	1265	1266	1267	1267	1271	1276	1281	1283	1283	1279	1282	1282	1283	1284	1289	1292	1291	1292	1295	1294	1294	1295	1301	1302	1297	1297	1299	1307	1300	1298	1304	1311	1315	1308	1313	1311	1318	1318	1324	1325	1327	1322	1318	1315	1319	1322	1329	1332	1339	1348	1347	1339	1340	1340	1343	1344	1345	1347	1349	1352	1353	1355	1357	1358	1360	1360	1363	1366	1370	1367	1368	1375	0	0	0	566	566	569	570	565	577	593	594	586	581	577	575	574	570	566	563	563	564	564	563	562	562	559	559	557	557	555	552	549	549	547	546	542	539	536	535	536	537	538	540	541	0	541	540	0	536	534	0	0	0	0	0	0	0	0	0	0	0	0	0	0	0	528	0	530	532	534	0	0	0	0	0	0	0	0	0	0	0	542	534	527	0	0	0	0	0	0	0	527	529	0	0	0	0	0	0	0	0	0	0	0	0	0	0	0	0	0	0	0	0	0	0	0	0	0	0	0	0	507	0	503	0	0	0	504	504	502	502	501	0	503	503	500	501	0	0	0	0	0	0	0	0	0	0	0	0	0	0	0	0	0	0	0	0	0	0	0	0	0	0	0	0	0	0	0	0	0	0	0	0	0	0	0	0	0	0	0	0	0	0	0	0	0	0	0	0	0	0	0	0	500	500	501	502	503	502	501	501	502	503	502	502	501	501	502	503	502	502	501	502	501	500	0	0
0	3448	3455	3434	3429	3435	3451	3444	3462	3453	3461	3475	3486	3498	3497	3494	3514	3519	3511	3511	3530	3522	3531	3545	3546	3528	3540	3563	3564	3547	3550	3558	3581	3588	3591	3594	3595	3591	3587	3567	0	0	0	0	0	0	0	0	0	0	0	0	0	0	0	0	0	3659	0	0	3648	3650	3686	3707	3715	3724	3727	3729	3732	3734	3737	3738	3744	3748	3751	3752	3756	3760	3764	3764	3766	3770	3776	3785	3791	3792	3791	3793	3794	3796	3796	3804	3807	3811	3810	3816	3820	3826	3825	3828	3832	3839	3841	3842	3842	3843	3846	3851	3856	3859	3863	3866	3868	3874	3877	3881	3880	3883	3887	3890	3895	3896	3901	3901	3906	3907	3913	3916	3918	3919	3921	3927	3932	3934	3939	3940	3944	3946	3950	3955	3959	3966	3969	3971	3970	3972	3977	3978	3981	3980	3984	3987	3995	3996	3998	4000	4006	4011	4017	4019	4023	4025	4030	4031	4034	4035	4039	4042	4046	4050	4056	4061	4070	4088	0	4191	0	1893	1890	1892	1896	1893	1893	1897	1899	1894	1892	1899	1907	1907	1901	1906	1906	1914	0	0	0	0	0	1247	1238	1232	1238	1244	1246	1241	1239	1244	1245	1247	1249	1250	1250	1248	1252	1254	1258	1256	1261	1263	1268	1266	1265	1264	1266	1266	1266	1268	1272	1273	1276	1277	1275	1277	1281	1282	1282	1285	1287	1288	1288	1292	1293	1295	1295	1295	1297	1299	1300	1297	1300	1292	1295	1300	1311	1310	1308	1311	1312	1316	1317	1322	1322	1322	1318	1313	1309	1315	1320	1328	1330	1333	1337	1340	1337	1338	1338	1340	1340	1342	1344	1346	1349	1350	1352	1354	1356	1357	1357	1361	1364	1368	1368	1369	1376	0	0	557	564	569	566	575	574	585	591	589	581	576	574	573	572	567	564	562	561	560	560	560	560	559	555	554	554	553	552	549	548	547	545	544	541	538	534	533	533	534	536	537	539	538	538	537	536	535	0	535	536	535	534	533	534	532	0	0	0	0	0	0	0	0	0	0	0	0	530	532	0	0	0	0	0	0	0	0	0	0	541	534	526	0	0	0	0	521	522	522	525	527	528	0	0	0	0	0	0	0	0	0	0	0	0	0	0	0	0	0	514	0	0	0	511	0	509	0	0	0	0	0	0	0	0	0	501	501	501	501	0	0	0	0	0	0	0	0	0	0	0	0	0	0	0	0	0	0	0	0	0	0	0	0	0	0	0	0	0	0	0	0	0	0	0	0	0	0	0	0	0	0	0	0	0	0	0	0	0	0	0	0	0	0	0	0	0	0	0	0	0	0	0	0	0	500	500	0	0	0	500	500	500	500	0	0	500	501	501	500	500	500	0	0	0	0
0	3444	3434	3445	3436	3441	3431	3430	3446	3441	3464	3476	3479	3491	3499	3507	3516	3524	3510	3509	3517	3532	3542	3552	3548	3542	3545	3554	3561	3557	3552	3564	3583	3587	3588	3588	3595	3589	3590	3567	3573	3540	0	3579	0	0	0	0	0	0	0	0	0	0	0	0	0	0	0	3671	3645	3645	3653	3705	3714	3723	3725	3729	3734	3736	3739	3739	3747	3750	3753	3753	3755	3759	3763	3767	3768	3773	3776	3784	3786	3788	3789	3794	3795	3795	3795	3802	3807	3809	3811	3816	3823	3828	3826	3828	3832	3839	3841	3843	3842	3843	3845	3852	3855	3858	3862	3867	3868	3870	3873	3876	3878	3882	3888	3893	3897	3898	3900	3902	3905	3907	3909	3914	3915	3918	3921	3927	3931	3934	3938	3940	3943	3946	3951	3959	3961	3966	3967	3971	3970	3973	3976	3979	3979	3980	3984	3989	3995	3998	3999	4001	4006	4010	4015	4016	4020	4021	4028	4031	4037	4036	4039	4043	4048	4051	4051	4057	4069	4100	0	4237	0	1892	1898	1900	1898	1887	1885	1890	1894	1893	1899	1903	1907	1907	1911	1909	1904	1882	0	0	0	0	0	1241	1236	1235	1246	1248	1247	1240	1241	1244	1247	1251	1253	1254	1254	1252	1253	1254	1256	1259	1260	1260	1263	1265	1269	1268	1272	1269	1272	1270	1274	1277	1280	1281	1278	1280	1283	1286	1286	1285	1290	1292	1294	1293	1296	1300	1300	1298	1298	1303	1306	1303	1301	1296	1299	1304	1307	1307	1308	1312	1313	1319	1324	1325	1320	1317	1313	1312	1311	1320	1324	1325	1330	1332	1339	1341	1339	1339	1339	1342	1343	1345	1346	1347	1350	1353	1355	1357	1357	1358	1359	1363	1367	1371	1373	1375	1382	0	0	561	566	571	569	574	575	587	593	588	581	577	575	575	573	570	567	565	563	561	561	560	559	557	555	554	555	555	553	551	548	548	546	545	543	542	537	535	533	535	536	538	539	539	538	537	0	0	0	0	0	0	0	0	0	0	0	0	0	0	0	0	0	0	0	0	0	0	0	531	0	0	0	0	0	0	0	0	0	0	543	537	529	0	0	0	0	0	0	523	526	527	528	0	0	0	0	0	0	0	0	0	0	0	0	0	0	0	0	0	0	0	0	0	0	0	0	0	0	0	0	0	0	0	0	0	0	0	0	0	0	500	500	501	500	500	0	0	0	0	0	0	0	0	0	0	0	0	0	0	0	0	0	0	0	0	0	0	0	0	0	0	0	0	0	0	0	0	0	0	0	0	0	0	0	0	0	0	0	0	0	0	0	0	0	0	0	0	0	0	0	0	0	500	501	503	503	503	501	501	501	502	501	500	500	500	501	502	501	501	501	501	501	0	0	0
0	3423	3430	3435	3448	3439	3429	3412	3432	3448	3454	3458	3477	3479	3502	3518	3513	3510	3507	3499	3504	3530	3555	3562	3557	3552	3546	3553	3561	3572	3566	3576	3587	3593	3584	3592	3596	3590	3591	3582	3596	3614	3613	3607	0	0	0	0	0	0	0	0	0	3676	0	0	0	0	0	3638	0	3670	3671	3701	3718	3719	3723	3725	3730	3733	3739	3742	3748	3751	3754	3753	3751	3754	3758	3763	3766	3771	3775	3780	3781	3784	3783	3789	3791	3792	3792	3795	3801	3802	3805	3812	3820	3824	3821	3825	3828	3835	3837	3842	3843	3846	3847	3852	3852	3855	3859	3864	3867	3867	3871	3873	3878	3880	3885	3889	3893	3894	3899	3901	3904	3903	3904	3905	3908	3912	3918	3922	3926	3929	3934	3937	3940	3943	3948	3953	3953	3956	3959	3966	3966	3970	3970	3973	3977	3980	3984	3986	3991	3994	3996	3997	4002	4006	4010	4009	4013	4018	4026	4030	4035	4035	4038	4042	4047	4048	4047	4054	4070	4116	0	4192	0	1904	1899	1895	1891	1888	1883	1889	1891	1898	1903	1903	1907	1911	1915	1907	1898	0	0	0	0	0	0	1242	1237	1237	1245	1242	1240	1234	1239	1246	1251	1253	1254	1255	1253	1251	1249	1251	1254	1257	1257	1258	1262	1264	1267	1266	1268	1265	1268	1267	1274	1276	1278	1275	1276	1277	1282	1281	1281	1278	1284	1287	1290	1289	1291	1292	1295	1296	1297	1301	1303	1303	1298	1294	1299	1303	1307	1302	1304	1306	1309	1312	1318	1318	1315	1311	1313	1314	1316	1320	1322	1325	1326	1327	1333	1342	1338	1338	1337	1339	1340	1342	1344	1345	1348	1351	1354	1354	1355	1355	1358	1361	1366	1370	1372	1376	1384	0	564	563	564	568	573	568	569	586	589	581	576	574	573	573	571	568	565	562	560	557	556	555	556	554	553	552	553	553	552	549	547	546	545	544	541	540	537	534	530	531	531	534	536	536	535	533	0	0	535	535	535	536	533	532	0	0	0	0	0	0	0	0	0	0	0	0	0	0	0	529	532	537	0	0	0	0	0	0	0	544	542	536	528	523	0	0	0	0	0	521	523	525	526	527	0	0	0	0	0	0	0	0	0	0	0	0	0	0	0	0	0	0	0	0	0	0	0	0	0	0	0	505	505	504	503	502	0	502	502	500	0	0	0	0	0	0	0	0	0	0	0	0	0	0	0	0	0	0	0	0	0	0	0	0	0	0	0	0	0	0	0	0	0	0	0	0	0	0	0	0	0	0	0	0	0	0	0	0	0	0	0	0	0	0	0	0	0	0	0	0	0	0	0	0	0	500	0	500	0	0	0	0	0	0	0	0	0	0	0	0	0	0	0	0	0	0
0	3414	3430	3465	3445	3445	3435	3438	3447	3454	3471	3461	3458	3460	3510	3519	3495	3503	3514	3506	3500	3514	3546	3557	3552	3544	3541	3552	3565	3586	3586	3590	3593	3587	3594	3593	3596	3604	3593	3590	3604	3620	3618	3567	0	0	0	0	0	0	3697	0	0	0	0	0	0	0	0	0	0	0	3680	3714	3718	3719	3722	3726	3728	3730	3735	3740	3744	3747	3752	3752	3750	3753	3758	3763	3766	3771	3773	3777	3775	3780	3781	3788	3791	3792	3792	3795	3800	3803	3807	3814	3820	3821	3820	3823	3827	3832	3834	3838	3839	3846	3850	3854	3854	3857	3861	3865	3866	3867	3869	3871	3877	3881	3887	3888	3891	3893	3901	3903	3905	3902	3903	3904	3910	3915	3921	3924	3928	3930	3932	3937	3939	3945	3947	3950	3949	3952	3957	3963	3965	3968	3966	3972	3977	3984	3987	3988	3991	3995	3999	4001	4005	4007	4010	4009	4013	4018	4023	4028	4034	4037	4038	4042	4045	4048	4049	4058	4074	4107	0	4216	0	1907	1900	1893	1892	1889	1886	1888	1897	1905	1909	1909	1914	1918	1914	1904	1908	1922	0	0	0	0	0	1237	1237	1239	1244	1239	1240	1238	1245	1250	1255	1255	1256	1255	1253	1253	1253	1254	1254	1259	1258	1260	1260	1261	1264	1264	1268	1266	1269	1269	1276	1276	1277	1274	1279	1280	1284	1281	1282	1280	1287	1287	1292	1291	1295	1295	1300	1305	1304	1306	1306	1307	1302	1299	1302	1305	1306	1303	1306	1309	1312	1315	1321	1321	1319	1314	1315	1315	1322	1323	1327	1325	1327	1327	1337	1346	1339	1338	1339	1342	1344	1345	1346	1346	1348	1352	1356	1355	1355	1356	1358	1362	1366	1370	1371	1376	1389	0	578	569	552	567	567	566	567	585	588	580	577	576	575	574	571	569	567	564	561	559	559	556	556	555	556	555	554	554	552	551	549	548	546	544	542	541	539	537	533	531	531	533	537	537	537	536	536	0	0	535	0	0	0	533	0	532	0	0	0	0	0	0	0	0	521	0	0	0	0	0	0	0	0	0	0	0	0	0	0	0	544	539	530	0	0	0	0	0	0	0	523	527	528	529	0	0	0	0	0	0	0	0	0	0	0	0	0	0	0	0	0	0	0	0	0	0	0	0	0	0	0	0	0	0	504	0	0	504	0	0	0	0	0	0	0	0	0	0	0	0	0	0	0	0	0	0	0	0	0	0	0	0	0	0	0	0	0	0	0	0	0	0	0	0	0	0	0	0	0	0	0	0	0	0	0	0	0	0	0	0	0	0	0	0	0	0	0	0	0	0	0	0	0	0	0	501	501	503	501	502	500	501	500	501	501	500	0	0	0	0	0	0	0	0	0	0
0	3427	3417	3436	3458	3442	3427	3426	3442	3468	3468	3463	3458	3487	3500	3504	3486	3500	3509	3514	3511	3522	3536	3541	3541	3532	3534	3553	3576	3592	3593	3595	3587	3591	3585	3591	3604	3592	3595	3591	3605	3615	3617	3609	0	0	0	0	0	0	3639	0	0	0	0	0	0	0	0	0	0	0	3648	3697	3711	3712	3718	3720	3725	3724	3731	3734	3737	3742	3747	3748	3745	3752	3756	3761	3761	3767	3770	3774	3777	3780	3780	3784	3788	3791	3792	3795	3798	3802	3806	3813	3816	3817	3814	3818	3823	3829	3831	3834	3836	3843	3847	3849	3850	3852	3857	3861	3863	3865	3870	3872	3876	3877	3880	3880	3883	3889	3898	3902	3905	3903	3905	3906	3912	3917	3920	3920	3922	3927	3930	3934	3934	3940	3942	3942	3942	3945	3953	3959	3962	3963	3964	3969	3974	3981	3983	3983	3985	3989	3993	3996	4002	4004	4007	4009	4013	4016	4019	4024	4029	4031	4034	4037	4039	4042	4047	4055	4070	4103	4231	0	0	1905	1893	1886	1888	1890	1892	1893	1896	1906	1907	1911	1913	1914	1911	1906	1906	0	0	0	0	0	0	1239	1233	1233	1232	1233	1237	1241	1248	1250	1252	1249	1250	1250	1252	1252	1252	1251	1251	1255	1259	1260	1260	1258	1260	1259	1261	1262	1265	1271	1276	1276	1277	1276	1281	1279	1283	1277	1278	1276	1284	1285	1288	1286	1290	1287	1289	1293	1299	1301	1300	1300	1298	1297	1301	1300	1301	1300	1304	1307	1310	1312	1312	1310	1314	1313	1317	1315	1322	1322	1325	1324	1325	1327	1335	1345	1336	1335	1335	1338	1341	1341	1343	1342	1345	1348	1353	1351	1352	1353	1357	1361	1364	1365	1367	1373	0	0	555	565	548	552	561	569	573	584	582	576	575	574	574	571	569	567	565	561	559	556	556	554	555	553	553	552	551	550	549	548	547	545	544	541	538	536	536	534	532	529	529	530	533	534	535	534	534	0	0	0	0	0	532	530	531	530	0	0	0	0	0	0	0	0	0	0	524	0	0	0	0	0	534	536	0	0	0	0	0	0	543	537	528	523	0	0	0	0	517	0	521	525	526	525	0	0	0	0	0	0	0	0	0	0	0	0	0	0	0	0	0	0	0	0	0	0	0	0	0	0	504	0	0	0	501	502	503	501	500	0	0	0	0	0	0	0	0	0	0	0	0	0	0	0	0	0	0	0	0	0	0	0	0	0	0	0	0	0	0	0	0	0	0	0	0	0	0	0	0	0	0	0	0	0	0	0	0	0	0	0	0	0	0	0	0	0	0	0	0	0	0	0	0	0	0	0	0	501	500	0	0	0	0	500	0	0	0	0	0	0	0	0	0	0	0	0
0	3390	3413	3421	3433	3428	3429	3427	3451	3463	3473	3474	3475	3496	3489	3489	3483	3487	3490	3504	3512	3528	3527	3520	3518	3526	3530	3548	3570	3587	3589	3590	3584	3575	3585	3597	3598	3593	3578	3583	3602	3612	3614	3615	3584	3548	3588	3576	0	0	0	0	0	0	0	0	0	0	0	3613	3596	3604	3655	3694	3707	3710	3715	3720	3724	3725	3731	3733	3737	3739	3744	3747	3749	3756	3760	3764	3762	3764	3765	3772	3775	3781	3780	3786	3789	3793	3795	3797	3800	3804	3807	3812	3813	3815	3816	3819	3824	3829	3828	3831	3832	3839	3842	3845	3849	3853	3859	3860	3861	3863	3868	3872	3874	3876	3879	3881	3883	3890	3897	3902	3903	3903	3905	3910	3914	3918	3918	3921	3922	3927	3929	3931	3933	3937	3942	3943	3946	3947	3953	3959	3964	3965	3967	3970	3973	3978	3981	3983	3986	3991	3995	3995	4002	4004	4008	4009	4012	4014	4017	4023	4028	4030	4031	4034	4037	4043	4048	4060	4074	0	0	4175	0	1905	1893	1888	1891	1894	1896	1894	1897	1901	1908	1908	1908	1906	1903	1897	1898	1900	0	0	0	0	0	1240	1233	1233	1234	1237	1243	1247	1250	1249	1250	1248	1248	1249	1251	1254	1253	1253	1254	1259	1262	1262	1261	1260	1262	1264	1268	1270	1270	1273	1277	1276	1278	1279	1282	1282	1284	1285	1282	1280	1283	1284	1290	1292	1294	1286	1285	1291	1298	1301	1301	1302	1303	1303	1304	1298	1298	1301	1307	1308	1313	1317	1317	1314	1316	1316	1318	1316	1326	1327	1329	1322	1326	1328	1340	1343	1334	1334	1335	1340	1343	1344	1344	1343	1346	1350	1353	1353	1353	1354	1358	1362	1365	1364	1367	1372	0	0	0	554	556	558	570	579	583	591	585	578	577	576	575	571	568	567	565	563	561	560	560	558	556	554	554	554	553	551	550	549	548	545	544	541	540	538	538	535	533	532	531	531	532	534	536	537	536	0	0	0	0	0	0	0	532	532	531	0	0	0	0	0	0	0	522	0	525	527	527	0	0	0	0	0	0	0	0	0	0	0	545	539	529	523	0	0	0	0	0	0	521	0	528	0	0	0	0	0	0	0	0	0	0	0	0	0	0	0	0	0	0	0	0	0	0	0	0	0	0	0	504	0	0	0	502	0	0	0	0	0	0	0	0	0	0	0	0	0	0	0	0	0	0	0	0	0	0	0	0	0	0	0	0	0	0	0	0	0	0	0	0	0	0	0	0	0	0	0	0	0	0	0	0	0	0	0	0	0	0	0	0	0	0	0	0	0	0	0	0	0	0	0	0	0	0	0	0	501	501	502	500	500	500	501	501	501	500	500	500	0	0	0	0	0	0	0
0	3394	3402	3427	3416	3440	3424	3440	3450	3463	3469	3479	3493	3485	3479	3466	3482	3490	3487	3504	3518	3517	3529	3523	3514	3521	3541	3550	3554	3563	3582	3588	3564	3564	3573	3587	3585	3578	3582	3589	3590	3601	3611	3610	3599	3591	3594	3595	0	0	0	0	0	0	0	0	0	0	0	3662	3603	3622	3659	3700	3704	3706	3710	3716	3721	3724	3732	3736	3737	3737	3742	3746	3751	3755	3757	3760	3761	3764	3764	3769	3774	3779	3780	3783	3787	3789	3793	3793	3794	3796	3800	3805	3807	3811	3814	3817	3821	3822	3825	3828	3833	3837	3839	3841	3846	3849	3855	3856	3861	3861	3867	3869	3871	3871	3872	3877	3880	3887	3891	3898	3901	3902	3903	3906	3908	3913	3914	3919	3918	3923	3924	3928	3931	3935	3940	3942	3944	3946	3949	3954	3961	3964	3967	3968	3971	3974	3975	3977	3981	3984	3990	3992	3998	4003	4005	4005	4007	4013	4018	4022	4025	4027	4028	4029	4033	4038	4044	4054	4074	0	0	4210	0	1901	1893	1891	1892	1892	1895	1893	1896	1902	1904	1903	1901	1899	1900	1897	1898	1901	0	0	0	0	0	1241	1233	1236	1235	1238	1240	1245	1246	1247	1247	1248	1247	1246	1245	1247	1249	1253	1255	1259	1261	1259	1260	1259	1263	1264	1270	1269	1268	1268	1272	1274	1276	1279	1278	1279	1278	1281	1277	1279	1280	1284	1288	1290	1289	1281	1279	1282	1288	1290	1297	1302	1302	1303	1303	1298	1300	1302	1303	1302	1307	1313	1310	1309	1312	1315	1315	1315	1320	1325	1324	1318	1321	1327	1339	1339	1333	1333	1334	1337	1340	1342	1342	1341	1343	1346	1349	1350	1352	1353	1357	1361	1363	1362	1366	1372	0	0	0	552	562	562	571	576	583	586	581	576	575	572	570	568	566	565	562	560	558	557	557	555	553	551	550	550	550	549	549	547	546	543	542	540	539	538	537	534	532	531	529	528	528	529	532	533	534	533	533	0	0	0	0	0	0	530	530	527	527	527	528	0	0	0	0	0	0	526	526	529	529	0	0	0	0	0	0	0	0	0	543	537	528	521	0	0	0	0	516	517	519	522	524	524	524	0	0	0	0	0	0	0	0	0	0	0	0	0	0	0	0	0	0	0	512	0	0	0	0	0	0	504	504	0	501	0	505	0	501	500	500	0	0	0	0	0	0	0	0	0	0	0	0	0	0	0	0	0	0	0	0	0	0	0	0	0	0	0	0	0	0	0	0	0	0	0	0	0	0	0	0	0	0	0	0	0	0	0	0	0	0	0	0	0	0	0	0	0	0	0	0	0	0	0	0	0	0	0	0	0	0	0	0	0	0	0	0	0	0	0	0	0	0	0	0	0
0	3388	3402	3427	3456	3430	3423	3434	3451	3459	3471	3490	3494	3491	3454	3470	3497	3506	3511	3518	3522	3514	3519	3532	3534	3530	3538	3546	3546	3561	3582	3587	3579	3566	3570	3576	3581	3592	3591	3592	3595	3596	3605	3611	3607	3599	3599	3610	3607	0	0	0	0	0	0	0	0	0	3637	0	3632	3647	3680	3706	3708	3712	3713	3719	3721	3727	3732	3738	3737	3737	3741	3747	3752	3752	3756	3758	3762	3765	3765	3770	3773	3779	3780	3783	3786	3788	3791	3791	3794	3795	3798	3803	3806	3809	3813	3816	3820	3822	3826	3830	3835	3839	3838	3840	3842	3848	3853	3854	3858	3859	3865	3867	3873	3876	3878	3881	3883	3884	3887	3892	3896	3897	3899	3903	3906	3910	3913	3920	3920	3923	3923	3926	3932	3936	3940	3943	3946	3948	3949	3954	3960	3962	3964	3965	3970	3973	3974	3976	3980	3985	3990	3991	3994	3999	4003	4005	4007	4014	4018	4022	4027	4028	4025	4025	4032	4039	4045	4053	4068	0	0	0	0	1895	1896	1896	1896	1892	1893	1894	1898	1898	1895	1893	1900	1896	1893	1884	1880	0	0	0	0	0	1263	1240	1235	1238	1242	1241	1237	1238	1241	1248	1249	1250	1248	1247	1246	1249	1252	1256	1256	1259	1262	1261	1264	1264	1269	1270	1274	1272	1270	1270	1270	1271	1271	1274	1274	1279	1279	1284	1281	1284	1282	1284	1287	1292	1291	1287	1284	1289	1289	1293	1300	1304	1304	1303	1307	1304	1307	1306	1305	1302	1309	1313	1310	1309	1315	1318	1315	1312	1314	1321	1321	1320	1322	1326	1338	1338	1336	1335	1336	1340	1343	1344	1344	1344	1346	1349	1351	1353	1355	1356	1359	1361	1363	1364	1366	0	0	0	0	0	0	565	571	580	587	584	582	580	577	572	569	567	565	564	561	560	558	559	558	556	554	553	552	551	550	549	549	549	548	545	544	542	541	540	538	536	533	532	530	530	0	529	531	534	535	535	0	0	0	0	0	0	0	0	0	0	528	0	0	0	0	0	0	0	0	0	0	0	531	0	0	0	0	0	0	0	0	0	546	541	531	0	0	0	0	0	0	0	0	521	523	526	0	0	0	0	0	0	0	0	0	0	0	0	0	0	0	0	0	0	0	0	0	0	0	0	0	0	0	0	0	0	0	0	0	0	0	0	0	0	0	0	0	0	0	0	0	0	0	0	0	0	0	0	0	0	0	0	0	0	0	0	0	0	0	0	0	0	0	0	0	0	0	0	0	0	0	0	0	0	0	0	0	0	0	0	0	0	0	0	0	0	0	0	0	0	0	0	0	0	0	0	0	0	0	0	0	501	501	502	0	0	0	0	0	0	0	0	0	0	0	0	0	0
0	3393	3413	3424	3438	3440	3429	3430	3448	3458	3465	3477	3485	3461	3467	3508	3510	3510	3522	3531	3536	3527	3531	3534	3541	3531	3544	3549	3552	3559	3568	3573	3574	3574	3572	3577	3595	3602	3593	3587	3594	3604	3605	3617	3622	3598	3606	3613	3618	3608	0	0	0	0	0	0	0	0	3575	0	3634	0	3708	3705	3706	3708	3709	3712	3716	3722	3727	3731	3732	3734	3740	3744	3748	3750	3753	3756	3757	3761	3764	3770	3774	3778	3781	3780	3782	3783	3786	3787	3790	3793	3799	3803	3808	3808	3812	3814	3819	3820	3826	3831	3837	3837	3836	3838	3840	3844	3847	3849	3853	3854	3862	3865	3872	3872	3875	3877	3882	3883	3885	3888	3893	3896	3896	3898	3900	3906	3908	3915	3915	3920	3921	3925	3927	3931	3935	3939	3941	3943	3946	3950	3955	3956	3958	3963	3969	3972	3972	3974	3977	3980	3984	3989	3992	3997	4000	4005	4006	4010	4013	4017	4022	4022	4022	4022	4027	4033	4038	4045	4059	0	0	0	0	1894	1887	1891	1889	1888	1888	1895	1898	1896	1887	1892	1899	1901	1894	1879	0	0	0	4091	4092	4090	0	1241	1233	1235	1238	1238	1234	1235	1237	1247	1251	1251	1248	1245	1247	1249	1251	1253	1253	1254	1258	1257	1262	1260	1265	1265	1266	1266	1267	1266	1267	1269	1272	1273	1273	1276	1275	1275	1276	1282	1283	1285	1285	1287	1286	1287	1283	1283	1280	1285	1289	1292	1291	1298	1307	1309	1308	1303	1304	1303	1309	1307	1303	1303	1309	1315	1314	1314	1314	1318	1316	1319	1320	1327	1336	1341	1336	1334	1337	1339	1340	1340	1342	1344	1347	1347	1349	1349	1352	1355	1359	1361	1362	1364	1367	0	0	0	0	0	559	558	573	576	586	578	578	578	575	569	565	564	563	561	558	558	556	555	554	552	551	549	547	546	545	545	545	545	545	543	543	540	539	537	535	535	532	530	527	527	526	525	527	529	532	532	532	0	0	0	531	0	0	0	0	0	526	0	528	528	529	527	0	0	0	0	0	525	528	532	0	0	0	0	0	0	0	0	547	542	532	526	0	0	0	0	0	0	0	518	521	523	525	0	0	0	0	0	0	0	0	0	0	0	0	0	0	0	0	0	0	0	0	0	0	0	0	0	0	505	504	0	501	500	0	0	0	0	0	0	0	0	0	0	0	0	0	0	0	0	0	0	0	0	0	0	0	0	0	0	0	0	0	0	0	0	0	0	0	0	0	0	0	0	0	0	0	0	0	0	0	0	0	0	0	0	0	0	0	0	0	0	0	0	0	0	0	0	0	0	0	0	0	0	0	0	0	0	0	0	0	0	0	0	0	0	0	0	0	0	0	0	0	0
0	3413	3418	3437	3455	3461	3447	3462	3453	3448	3457	3460	3460	3469	3483	3506	3507	3499	3504	3527	3541	3527	3517	3530	3526	3538	3539	3549	3548	3553	3561	3566	3574	3583	3586	3595	3596	3606	3594	3593	3600	3601	3615	3623	3629	3631	3613	3623	3636	3614	0	0	0	0	0	0	0	0	0	3618	3638	3678	3700	3705	3705	3706	3707	3709	3712	3717	3723	3728	3731	3732	3736	3739	3743	3749	3755	3757	3755	3757	3763	3772	3774	3777	3778	3779	3780	3780	3784	3786	3791	3793	3801	3805	3812	3810	3814	3815	3821	3823	3827	3832	3835	3836	3835	3839	3841	3845	3845	3849	3854	3857	3862	3865	3873	3875	3878	3879	3884	3882	3883	3884	3890	3894	3896	3898	3902	3907	3909	3913	3915	3920	3923	3926	3929	3932	3935	3937	3940	3941	3946	3950	3954	3955	3956	3962	3965	3970	3970	3974	3978	3984	3986	3990	3991	3995	3999	4004	4007	4006	4010	4014	4020	4020	4022	4024	4028	4033	4039	4049	4066	4101	0	0	0	1887	1879	1881	1886	1890	1890	1896	1896	1894	1889	1896	1899	1899	1890	1859	0	0	4071	4092	4099	0	0	1239	1233	1233	1233	1236	1238	1238	1239	1246	1250	1250	1248	1246	1247	1250	1251	1253	1254	1256	1258	1259	1263	1263	1266	1267	1266	1269	1270	1268	1264	1268	1275	1278	1278	1279	1277	1276	1276	1280	1281	1281	1282	1286	1288	1285	1283	1282	1285	1290	1292	1291	1293	1299	1308	1305	1305	1301	1304	1306	1312	1312	1307	1309	1312	1315	1316	1319	1320	1321	1317	1322	1325	1331	1335	1339	1337	1335	1338	1340	1341	1339	1341	1345	1348	1350	1351	1351	1353	1356	1360	1361	1362	1365	1371	0	0	0	0	0	560	569	576	587	587	581	579	578	576	571	566	564	563	561	559	559	557	555	553	552	551	550	548	548	546	546	545	546	546	545	543	542	540	538	536	536	532	531	527	528	527	526	527	530	533	534	533	533	0	0	0	0	0	0	0	0	0	0	0	0	0	0	526	0	0	0	0	0	0	533	0	0	0	0	0	0	0	0	548	545	534	528	0	0	0	0	0	0	518	520	523	0	0	0	0	0	0	0	0	0	0	0	0	0	0	0	0	0	0	0	0	0	0	0	0	0	0	0	0	0	0	0	0	0	0	500	0	0	0	0	0	0	0	0	0	0	0	0	0	0	0	0	0	0	0	0	0	0	0	0	0	0	0	0	0	0	0	0	0	0	0	0	0	0	0	0	0	0	0	0	0	0	0	0	0	0	0	0	0	0	0	0	0	0	0	0	0	0	0	0	0	0	0	0	0	0	0	500	0	0	0	0	500	0	0	0	0	0	0	0	0	0	0	0
0	3433	3435	3464	3466	3467	3460	3432	3431	3450	3455	3452	3459	3476	3491	3491	3497	3494	3490	3518	3534	3526	3517	3524	3538	3550	3551	3554	3558	3560	3557	3561	3567	3575	3587	3598	3593	3591	3596	3602	3598	3601	3613	3621	3620	3628	3625	3633	3640	3652	3635	3645	3628	0	0	0	0	0	0	0	0	3651	3682	3698	3701	3702	3702	3702	3706	3709	3720	3723	3726	3724	3727	3733	3742	3749	3752	3754	3752	3755	3759	3767	3768	3771	3775	3778	3780	3779	3781	3781	3788	3791	3798	3801	3807	3808	3811	3813	3818	3821	3824	3829	3832	3833	3835	3838	3841	3842	3841	3845	3850	3853	3856	3861	3868	3871	3874	3876	3882	3882	3883	3882	3889	3894	3895	3896	3900	3907	3908	3911	3910	3915	3919	3923	3925	3930	3932	3933	3934	3937	3945	3950	3953	3955	3956	3962	3962	3965	3966	3972	3977	3982	3983	3986	3991	3994	3996	3999	4001	4002	4005	4009	4013	4014	4019	4022	4026	4030	4037	4051	4075	4132	0	0	0	1883	1870	1876	1882	1887	1885	1891	1890	1891	1895	1903	1903	1899	1885	1859	0	4068	4075	4087	4085	0	0	1231	1230	1233	1230	1233	1238	1241	1237	1239	1245	1250	1248	1246	1246	1247	1248	1250	1253	1252	1254	1252	1256	1255	1258	1259	1260	1265	1267	1263	1262	1265	1276	1277	1277	1275	1271	1270	1273	1279	1281	1281	1281	1283	1287	1288	1286	1282	1283	1287	1289	1293	1296	1303	1307	1306	1302	1297	1299	1305	1309	1313	1310	1309	1308	1308	1314	1317	1321	1321	1320	1321	1323	1328	1330	1336	1334	1334	1336	1337	1337	1336	1338	1342	1346	1347	1348	1347	1350	1354	1357	1356	1358	1363	1371	0	513	536	551	562	561	570	581	586	584	580	577	575	573	569	566	564	563	560	558	557	556	554	553	551	549	546	544	544	544	544	543	543	544	543	541	539	537	536	534	534	532	529	527	525	524	523	524	526	528	529	529	0	0	0	0	0	0	0	0	0	0	0	0	0	0	0	523	0	0	0	0	0	526	530	533	0	0	0	0	0	544	0	546	543	534	526	0	0	0	0	517	515	518	519	523	525	527	525	0	0	0	0	0	0	0	0	0	0	0	0	0	0	0	0	0	507	0	509	0	503	0	0	0	0	0	0	0	0	0	0	0	0	0	0	0	0	0	0	0	0	0	0	0	0	0	0	0	0	0	0	0	0	0	0	0	0	0	0	0	0	0	0	0	0	0	0	0	0	0	0	0	0	0	0	0	0	0	0	0	0	0	0	0	0	0	0	0	0	0	0	0	0	0	0	0	0	0	0	0	0	0	0	0	0	0	0	0	0	0	0	0	0	0	0	0	0	0	0
0	3437	3441	3442	3450	3446	3437	3437	3440	3457	3463	3461	3473	3480	3491	3481	3494	3498	3508	3499	3507	3517	3521	3527	3528	3550	3557	3570	3563	3567	3570	3575	3572	3579	3588	3588	3585	3594	3603	3610	3593	3601	3608	3612	3628	3630	3640	3633	3637	3638	3640	3633	3646	0	0	0	0	0	0	0	0	0	3674	3695	3700	3704	3705	3706	3707	3710	3722	3727	3729	3725	3726	3733	3739	3745	3747	3751	3753	3756	3761	3766	3767	3770	3772	3776	3782	3784	3785	3785	3790	3792	3796	3801	3808	3810	3810	3810	3815	3820	3822	3824	3827	3830	3834	3836	3840	3840	3840	3845	3848	3851	3853	3859	3867	3871	3876	3877	3881	3879	3881	3880	3887	3890	3894	3898	3903	3909	3909	3911	3911	3913	3914	3917	3924	3931	3934	3932	3933	3938	3947	3951	3954	3956	3956	3961	3962	3965	3966	3972	3979	3984	3984	3987	3989	3992	3992	3996	4002	4004	4007	4009	4013	4013	4015	4019	4026	4033	4041	4052	4077	4152	0	0	1898	1891	1877	1878	1881	1890	1891	1895	1891	1891	1889	1894	1892	1896	0	0	0	4078	4082	4073	0	0	0	1235	1232	1232	1229	1232	1237	1241	1238	1239	1243	1249	1250	1250	1247	1247	1250	1253	1256	1256	1257	1254	1256	1258	1261	1261	1260	1265	1270	1271	1268	1267	1271	1274	1276	1275	1273	1272	1278	1282	1287	1286	1284	1284	1288	1290	1290	1286	1288	1291	1297	1298	1299	1299	1309	1304	1302	1294	1299	1306	1312	1320	1318	1316	1311	1314	1318	1318	1321	1322	1323	1325	1323	1326	1327	1336	1336	1335	1335	1336	1337	1338	1339	1342	1345	1347	1348	1349	1352	1356	1357	1357	1360	1367	0	0	529	542	554	564	564	570	574	586	583	582	579	576	572	570	566	565	563	562	559	557	555	554	554	553	551	549	547	546	545	545	543	543	543	542	541	539	538	538	537	536	534	532	530	528	526	525	524	526	527	527	528	529	529	0	0	0	526	0	0	0	0	0	0	0	0	0	0	0	0	0	0	0	0	531	535	0	0	0	0	0	546	548	548	545	536	528	522	0	0	0	0	0	519	0	524	0	527	0	0	0	0	0	0	0	0	0	0	0	0	0	0	0	0	0	0	0	0	0	0	0	0	0	0	0	0	0	501	0	0	0	0	0	0	0	0	0	0	0	0	0	0	0	0	0	0	0	0	0	0	0	0	0	0	0	0	0	0	0	0	0	0	0	0	0	0	0	0	0	0	0	0	0	0	0	0	0	0	0	0	0	0	0	0	0	0	0	0	0	0	0	0	0	0	0	0	0	0	0	0	0	0	500	0	0	0	0	0	500	0	500	0	0	0	0	0	0	0	0
0	3442	3412	3414	3435	3421	3417	3419	3446	3463	3468	3468	3475	3478	3482	3501	3495	3500	3509	3511	3507	3512	3516	3522	3531	3546	3551	3559	3558	3556	3576	3584	3577	3585	3582	3581	3584	3596	3605	3600	3604	3609	3615	3624	3620	3636	3640	3644	3643	3642	3632	3631	3635	3645	3630	3613	0	0	3667	0	0	0	3681	3694	3697	3705	3707	3707	3707	3710	3723	3726	3729	3725	3727	3733	3739	3743	3742	3747	3752	3756	3757	3761	3764	3767	3769	3774	3780	3784	3785	3784	3787	3789	3794	3799	3805	3809	3805	3807	3812	3819	3820	3821	3823	3824	3828	3833	3837	3838	3838	3843	3845	3846	3847	3854	3861	3868	3872	3875	3877	3877	3879	3879	3884	3888	3892	3894	3896	3902	3904	3908	3907	3908	3910	3914	3919	3924	3927	3928	3931	3939	3946	3950	3950	3952	3954	3959	3962	3962	3965	3970	3978	3981	3981	3982	3985	3990	3992	3996	4000	4004	4005	4008	4010	4012	4011	4016	4023	4031	4041	4052	4075	4123	4166	0	1895	1893	1883	1883	1883	1893	1896	1899	1896	1891	1885	1880	1878	1891	0	0	4071	4075	4065	0	0	0	0	1237	1232	1232	1231	1234	1235	1238	1237	1237	1240	1245	1249	1249	1246	1246	1246	1249	1251	1252	1253	1251	1254	1259	1261	1258	1255	1259	1265	1269	1270	1268	1269	1269	1271	1272	1273	1275	1278	1282	1289	1290	1288	1283	1285	1289	1294	1289	1287	1285	1293	1294	1294	1295	1303	1301	1296	1292	1297	1306	1309	1318	1315	1312	1309	1313	1320	1320	1321	1319	1323	1320	1322	1323	1328	1336	1332	1331	1331	1333	1334	1335	1338	1341	1344	1344	1345	1346	1350	1354	1356	1357	1360	1368	0	0	537	550	554	568	563	570	578	583	581	580	577	573	568	566	564	563	561	560	558	556	554	552	552	551	549	546	545	544	543	541	540	539	539	537	537	535	535	535	535	533	532	531	529	528	526	523	522	522	0	523	524	526	527	0	0	0	0	523	0	0	0	0	0	0	0	0	0	0	0	0	0	0	526	0	532	536	0	0	0	0	0	547	549	545	536	528	0	0	0	0	0	0	516	516	520	522	525	523	522	0	0	0	0	0	0	0	0	0	0	0	0	0	0	0	0	0	0	0	0	0	0	0	502	502	502	0	0	0	0	0	0	0	0	0	0	0	0	0	0	0	0	0	0	0	0	0	0	0	0	0	0	0	0	0	0	0	0	0	0	0	0	0	0	0	0	0	0	0	0	0	0	0	0	0	0	0	0	0	0	0	0	0	0	0	0	0	0	0	0	0	0	0	0	0	0	0	0	0	0	0	0	0	0	0	0	0	0	0	0	0	0	0	0	0	0	0	0	0
0	3422	3392	3407	3426	3424	3409	3402	3449	3449	3465	3464	3471	3468	3479	3506	3508	3482	3489	3510	3510	3519	3518	3523	3535	3533	3536	3540	3543	3553	3587	3579	3572	3581	3583	3585	3595	3593	3592	3601	3608	3617	3635	3627	3628	3626	3628	3647	3646	3636	3626	3627	3640	3647	3643	3627	0	3621	0	0	0	3637	0	3693	3696	3703	3708	3709	3710	3712	3722	3725	3728	3726	3728	3733	3738	3741	3743	3748	3753	3754	3757	3761	3766	3766	3768	3772	3778	3782	3785	3783	3785	3789	3793	3800	3806	3809	3805	3808	3815	3822	3820	3820	3821	3824	3827	3834	3838	3841	3840	3844	3847	3850	3850	3854	3858	3865	3869	3872	3873	3873	3876	3879	3882	3886	3890	3893	3894	3899	3904	3909	3910	3911	3912	3916	3919	3923	3925	3929	3935	3941	3946	3947	3948	3947	3950	3952	3958	3960	3965	3969	3976	3979	3979	3984	3985	3991	3990	3996	3999	4004	4006	4009	4010	4012	4015	4018	4022	4026	4038	4053	4077	0	0	0	1894	1888	1880	1885	1883	1894	1896	1900	1898	1897	1888	1874	1864	0	0	4075	4072	4062	0	0	0	0	0	1243	1235	1233	1233	1236	1237	1244	1244	1244	1240	1243	1246	1248	1248	1249	1250	1251	1252	1255	1253	1252	1255	1261	1263	1262	1255	1257	1261	1267	1268	1268	1267	1270	1271	1275	1275	1279	1280	1284	1291	1292	1292	1287	1286	1288	1294	1293	1292	1293	1298	1295	1293	1294	1304	1299	1301	1299	1302	1303	1306	1312	1311	1311	1311	1315	1320	1321	1326	1328	1328	1325	1327	1330	1333	1338	1332	1331	1333	1334	1336	1337	1340	1343	1345	1345	1345	1348	1352	1357	1357	1358	1362	1370	0	0	0	0	0	0	562	567	582	582	581	580	578	574	570	568	565	564	562	561	560	558	554	552	551	551	549	547	547	546	545	542	541	540	539	537	536	536	536	536	535	534	533	532	531	530	528	527	0	526	0	524	525	527	529	0	0	0	0	0	0	0	0	0	0	0	0	0	0	0	0	0	0	0	0	0	533	538	0	0	0	0	0	548	550	547	538	530	0	0	0	0	0	0	518	0	519	0	0	0	0	0	0	0	0	0	0	0	0	0	0	0	0	0	513	0	0	0	0	0	0	0	0	0	0	0	0	0	0	0	500	0	0	0	0	0	0	0	0	0	0	0	0	0	0	0	0	0	0	0	0	0	0	0	0	0	0	0	0	0	0	0	0	0	0	0	0	0	0	0	0	0	0	0	0	0	0	0	0	0	0	0	0	0	0	0	0	0	0	0	0	0	0	0	0	0	0	0	0	0	0	0	0	0	0	0	0	0	0	0	0	0	0	0	0	0	0	0	0	0
0	3411	3424	3425	3436	3427	3413	3423	3431	3443	3458	3467	3471	3456	3482	3503	3506	3494	3484	3504	3521	3519	3520	3535	3520	3521	3522	3532	3528	3554	3565	3563	3567	3567	3583	3592	3587	3585	3590	3594	3612	3618	3622	3629	3616	3614	3626	3642	3640	3633	3633	3639	3642	3644	3649	3648	3655	3648	0	0	0	3664	0	3692	3693	3702	3708	3709	3709	3712	3720	3721	3722	3722	3727	3732	3740	3741	3743	3746	3751	3752	3755	3759	3763	3763	3767	3773	3777	3779	3781	3781	3785	3788	3792	3795	3797	3801	3800	3806	3814	3819	3816	3817	3818	3825	3827	3833	3837	3839	3838	3841	3846	3849	3849	3851	3855	3862	3866	3870	3870	3872	3875	3879	3881	3884	3887	3890	3891	3895	3902	3908	3911	3913	3915	3918	3916	3920	3921	3926	3932	3939	3944	3943	3945	3945	3948	3949	3955	3957	3962	3966	3972	3975	3976	3980	3985	3992	3994	3998	3998	4002	4004	4005	4008	4011	4018	4017	4020	4021	4033	4049	4079	0	4279	0	1887	1878	1873	1878	1878	1885	1890	1894	1894	1896	1897	1879	1861	0	4072	4079	0	0	0	0	0	0	0	1241	1235	1236	1236	1237	1238	1244	1249	1248	1243	1241	1243	1245	1245	1247	1247	1248	1249	1252	1253	1252	1258	1263	1265	1263	1257	1260	1261	1265	1263	1264	1268	1270	1272	1274	1276	1279	1279	1282	1284	1287	1285	1285	1290	1291	1292	1287	1291	1292	1296	1295	1299	1303	1307	1301	1301	1297	1295	1294	1299	1305	1305	1309	1312	1317	1315	1315	1320	1327	1328	1325	1328	1330	1334	1336	1332	1331	1333	1334	1337	1338	1341	1343	1345	1346	1346	1347	1351	1355	1356	1356	1361	1369	0	0	544	0	0	560	559	568	587	584	582	580	578	574	570	568	566	564	562	561	559	558	554	552	550	550	549	547	547	546	545	542	541	539	538	537	536	536	535	535	533	532	532	531	530	529	528	528	527	526	524	523	523	525	528	530	530	528	525	0	0	0	524	0	0	0	0	0	0	0	0	0	0	0	0	527	530	535	540	0	0	0	0	546	549	548	539	531	524	0	0	0	518	517	518	518	519	521	525	524	522	520	521	0	0	0	0	0	0	0	0	0	516	0	0	514	513	512	512	512	510	0	507	506	505	504	503	0	502	502	501	500	500	0	0	0	0	0	0	0	0	0	0	0	0	0	0	0	0	0	0	0	0	0	0	0	0	0	0	0	0	0	0	0	0	0	0	0	0	0	0	0	0	0	0	0	0	0	0	0	0	0	0	0	0	0	0	0	0	0	0	0	0	0	0	0	0	0	0	0	0	0	0	0	0	0	0	0	0	0	0	0	0	0	0	0	0	0	0	0
0	3414	3415	3432	3426	3431	3430	3430	3443	3445	3454	3458	3464	3464	3474	3485	3486	3484	3490	3508	3526	3506	3492	3521	3524	3516	3528	3534	3543	3543	3556	3566	3559	3566	3578	3580	3580	3583	3592	3596	3603	3611	3620	3621	3620	3628	3623	3631	3632	3637	3643	3656	3651	3647	3643	3648	3652	3661	0	0	3646	0	3683	3687	3694	3701	3706	3708	3711	3713	3718	3719	3717	3719	3725	3731	3738	3738	3740	3744	3747	3750	3753	3757	3763	3760	3768	3772	3777	3776	3778	3779	3786	3790	3794	3793	3795	3795	3799	3802	3810	3813	3813	3814	3816	3823	3825	3830	3834	3836	3837	3838	3844	3849	3851	3852	3854	3858	3863	3867	3868	3871	3875	3879	3879	3879	3883	3889	3891	3895	3899	3906	3909	3912	3911	3914	3914	3922	3924	3926	3928	3934	3939	3937	3942	3943	3948	3946	3953	3954	3959	3963	3968	3968	3970	3979	3985	3992	3991	3993	3994	3995	3998	3998	4002	4006	4014	4012	4015	4017	4030	4041	4062	0	0	0	1889	1880	1877	1878	1871	1880	1887	1889	1889	1890	1894	0	0	0	4067	4072	0	1814	0	0	0	0	0	1235	1237	1236	1237	1234	1236	1241	1245	1245	1241	1240	1243	1244	1247	1246	1247	1246	1248	1251	1253	1255	1258	1262	1261	1264	1262	1266	1264	1264	1261	1261	1267	1270	1273	1275	1278	1280	1278	1277	1278	1281	1281	1284	1288	1290	1285	1284	1289	1293	1295	1294	1297	1300	1306	1303	1303	1297	1293	1292	1297	1304	1309	1313	1316	1314	1310	1309	1315	1325	1324	1322	1320	1324	1331	1340	1334	1333	1334	1335	1337	1339	1341	1343	1345	1347	1348	1350	1353	1355	1355	1357	1365	0	0	0	0	0	0	554	561	576	587	585	581	578	577	574	571	568	566	563	560	560	557	556	552	552	549	548	547	547	548	547	545	542	541	539	537	536	536	536	535	534	533	532	532	531	530	529	527	527	526	525	523	522	522	523	525	528	529	0	0	0	525	524	524	0	0	0	0	0	0	0	0	0	0	0	0	0	529	533	538	541	0	0	0	0	549	548	542	532	524	519	516	0	0	0	518	0	517	519	523	523	523	0	0	0	0	0	0	521	0	0	0	0	0	0	514	0	514	0	0	511	509	0	0	0	0	504	0	0	0	501	500	500	0	0	0	0	0	0	0	0	0	0	0	0	0	0	0	0	0	0	0	0	0	0	0	0	0	0	0	0	0	0	0	0	0	0	0	0	0	0	0	0	0	0	0	0	0	0	0	0	0	0	0	0	0	0	0	0	0	0	0	0	0	0	0	0	0	0	0	0	0	0	0	0	0	0	0	0	0	0	0	0	0	0	0	0	0	0	0	0
0	3395	3420	3411	3426	3437	3446	3441	3432	3438	3444	3444	3442	3448	3479	3478	3480	3479	3488	3504	3506	3504	3501	3520	3536	3538	3533	3539	3545	3548	3560	3568	3578	3574	3579	3578	3575	3579	3596	3597	3602	3611	3621	3624	3626	3628	3619	3622	3628	3635	3637	3644	3647	3647	3644	3642	3652	3654	3647	3665	3660	3643	3673	3685	3691	3699	3703	3707	3709	3714	3717	3720	3717	3719	3724	3728	3733	3734	3736	3740	3745	3749	3752	3757	3760	3760	3766	3772	3775	3776	3776	3779	3783	3789	3791	3789	3790	3791	3797	3799	3805	3808	3811	3814	3816	3820	3822	3825	3832	3835	3836	3835	3839	3845	3851	3853	3854	3855	3859	3863	3866	3868	3874	3878	3878	3879	3883	3889	3890	3892	3897	3902	3904	3906	3907	3912	3915	3922	3923	3922	3926	3932	3935	3936	3940	3945	3948	3949	3953	3953	3959	3963	3968	3967	3969	3975	3982	3987	3990	3991	3994	3993	3994	3994	4001	4007	4012	4012	4014	4018	4027	4037	4052	0	0	0	1885	1887	1886	1879	1879	1883	1891	1889	1887	1888	1888	0	4072	4072	4065	0	0	0	0	0	0	0	0	1230	1236	1239	1240	1234	1235	1234	1238	1238	1240	1240	1244	1244	1247	1249	1252	1251	1251	1252	1254	1253	1259	1264	1267	1267	1267	1269	1268	1266	1262	1263	1271	1274	1276	1273	1279	1279	1279	1274	1273	1274	1276	1284	1289	1291	1290	1286	1290	1289	1294	1292	1297	1296	1300	1300	1300	1295	1293	1294	1299	1300	1306	1311	1313	1313	1311	1315	1316	1324	1322	1319	1313	1315	1325	1337	1334	1333	1333	1334	1336	1338	1340	1342	1345	1347	1349	1351	1353	1355	1358	1363	1372	0	0	0	0	0	552	559	573	584	589	585	582	579	576	573	570	567	564	561	559	559	558	556	554	552	549	548	547	547	548	547	545	543	541	538	536	534	534	534	533	533	533	533	533	531	529	528	527	527	525	524	523	522	521	520	521	524	527	528	526	0	0	0	524	0	523	0	0	0	0	0	0	0	0	0	0	0	0	0	535	539	0	0	0	0	551	550	544	534	0	519	0	0	0	0	0	0	517	519	521	0	522	0	0	0	0	0	0	0	0	0	0	0	0	0	0	0	0	0	0	0	0	0	0	0	0	503	501	0	501	501	0	0	0	0	0	0	0	0	0	0	0	0	0	0	0	0	0	0	0	0	0	0	0	0	0	0	0	0	0	0	0	0	0	0	0	0	0	0	0	0	0	0	0	0	0	0	0	0	0	0	0	0	0	0	0	0	0	0	0	0	0	0	0	0	0	0	0	0	0	0	0	0	0	0	0	0	0	0	0	0	0	0	0	0	0	0	0	0	0	0
0	3396	3408	3418	3409	3425	3441	3438	3430	3423	3438	3441	3436	3443	3450	3474	3484	3480	3486	3483	3493	3493	3514	3527	3544	3554	3552	3548	3557	3554	3569	3566	3566	3568	3576	3580	3581	3588	3600	3600	3597	3610	3613	3624	3627	3633	3617	3623	3619	3632	3625	3635	3639	3646	3640	3645	3648	3654	3662	3675	3676	3678	3685	3686	3690	3695	3700	3703	3703	3706	3710	3711	3710	3714	3720	3725	3729	3732	3735	3740	3744	3747	3749	3752	3757	3758	3764	3767	3772	3774	3774	3776	3780	3785	3788	3787	3790	3789	3795	3797	3803	3805	3810	3814	3818	3820	3823	3824	3830	3834	3835	3834	3839	3844	3849	3849	3849	3853	3857	3860	3861	3865	3870	3873	3876	3878	3881	3887	3889	3889	3891	3895	3896	3901	3906	3914	3918	3922	3922	3919	3922	3927	3932	3934	3939	3945	3947	3947	3948	3950	3957	3960	3963	3962	3966	3971	3977	3981	3982	3983	3986	3988	3990	3993	3998	4004	4007	4011	4012	4017	4023	4038	4063	0	0	0	1891	1888	1888	1889	1888	1886	1885	1883	1886	1899	0	0	4060	0	0	0	1864	1850	0	0	0	0	0	1229	1234	1234	1238	1231	1233	1230	1234	1234	1236	1240	1241	1243	1245	1250	1252	1253	1252	1253	1252	1253	1254	1258	1260	1261	1262	1263	1266	1264	1262	1264	1273	1274	1273	1270	1275	1275	1277	1273	1273	1271	1274	1279	1284	1289	1293	1292	1293	1294	1296	1293	1289	1292	1290	1298	1298	1297	1294	1295	1298	1301	1306	1310	1310	1307	1308	1314	1319	1324	1322	1318	1311	1312	1317	1331	1330	1331	1331	1332	1334	1337	1339	1341	1343	1346	1346	1349	1350	1353	1356	1363	1374	0	0	0	0	548	548	563	571	584	585	584	580	577	574	571	568	566	562	559	558	558	556	553	551	549	548	547	545	545	544	545	542	540	538	535	534	532	532	0	530	530	530	531	531	529	526	525	525	525	523	0	521	520	0	0	0	0	524	525	525	0	0	0	0	0	0	0	0	0	0	0	0	0	0	0	0	0	0	0	531	536	540	0	0	0	0	550	544	533	524	517	0	0	0	0	0	515	516	517	519	519	0	0	0	0	0	0	0	0	0	0	0	0	0	0	0	0	0	0	0	0	0	0	0	0	504	0	0	500	0	0	0	0	0	0	0	0	0	0	0	0	0	0	0	0	0	0	0	0	0	0	0	0	0	0	0	0	0	0	0	0	0	0	0	0	0	0	0	0	0	0	0	0	0	0	0	0	0	0	0	0	0	0	0	0	0	0	0	0	0	0	0	0	0	0	0	0	0	0	0	0	0	0	0	0	0	0	0	0	0	0	0	0	0	0	0	0	0	0	0	0
