0	1503	1511	1549	1562	1560	1560	1559	1574	1559	1565	1568	1576	1591	1591	1552	1582	1579	1545	1578	1591	0	0	0	0	0	0	0	1074	1072	1076	1078	1081	1085	1085	1083	1077	1079	1079	1082	1086	1089	1092	1093	1098	1098	1099	1103	1112	1110	1105	1101	1107	1116	1119	1112	1111	1119	1125	1128	1128	1127	1125	1129	1134	1136	1136	1134	1135	1142	1150	1150	1147	1150	1156	1162	1159	1160	1158	1157	1155	1154	1157	1160	1163	1168	1173	1177	1174	1173	1177	1186	1186	1182	1183	1185	1189	1186	1196	1199	1203	1200	1206	1207	1208	1201	1205	1212	1221	1222	1220	1219	1219	1223	1227	1227	1225	1226	1234	1245	1246	1245	1247	1252	1250	1253	1254	1257	1259	1262	1265	1268	1270	1272	1273	1275	1278	1281	1284	1287	1290	1293	1296	1297	1299	1303	1304	1307	1309	1312	1316	1318	1321	1323	1324	1326	1328	1332	1336	1340	1343	1345	1347	1351	1353	1357	1359	1362	1363	1366	1368	1372	1375	1379	1382	1386	1388	1390	1392	1395	1397	1401	1404	1408	1412	1417	1423	1430	1437	1457	0	1932	1952	0	0	902	861	844	838	835	834	833	833	832	824	730	699	689	683	681	678	676	669	666	665	665	662	657	654	654	656	657	658	657	655	653	652	653	652	649	646	646	645	644	642	640	637	636	636	640	643	645	643	644	643	645	643	645	643	643	642	642	641	640	640	641	642	644	644	645	648	654	658	663	667	669	662	653	650	653	659	667	670	674	674	673	672	672	672	666	659	652	651	653	657	660	661	662	663	661	660	659	659	658	658	657	657	656	655	656	655	656	656	657	657	656	656	658	658	660	660	661	661	662	664	665	665	665	665	666	666	666	665	665	665	666	666	667	666	667	667	668	669	671	673	675	674	673	671	672	672	673	672	673	672	672	672	672	672	674	676	678	677	677	677	679	681	681	681	683	683	684	684	685	685	685	687	689	688	689	690	691	691	691	691	691	693	695	700	703	708	712	716	715	717	716	717	715	718	719	722	725	734	744	751	752	755	757	763	770	774	775	775	772	771	770	771	770	769	770	770	773	775	778	778	780	781	779	777	777	778	780	780	782	780	781	780	781	781	782	782	782	784	787	787	787	786	791	807	0	0	1010	1022	1025	1029	1030	1031	1031	1028	1027	1027	1028	1028	1026	1023	1020	1018	1017	1017	1018	1018	1017	1013	1011	1007	1007	1005	1002	996	988	982	977	974	971	966	959	955	951	951	950	948	946	947	949	948	949	947	950	957	978	1003	1019	1022	1020	1018	1018	1020	1020	1020	1018	1016	1017	1014	1010	1007	1009	1012	1011	1010	1006	1006	0
0	1476	1520	1519	1531	1552	1560	1560	1565	1556	1566	1570	1568	1579	1584	1583	1590	1597	1576	1563	1579	1563	0	0	0	0	0	0	1086	1075	1077	1080	1087	1091	1092	1086	1081	1085	1084	1087	1082	1083	1087	1097	1101	1105	1104	1109	1112	1112	1110	1108	1111	1116	1121	1115	1109	1112	1121	1128	1133	1135	1135	1135	1138	1136	1138	1135	1138	1142	1151	1149	1146	1147	1156	1165	1162	1161	1159	1160	1159	1163	1163	1167	1168	1172	1172	1175	1177	1177	1178	1185	1184	1184	1186	1185	1187	1183	1192	1193	1199	1206	1212	1211	1206	1199	1202	1211	1220	1223	1223	1223	1222	1227	1231	1232	1226	1225	1230	1243	1246	1244	1248	1252	1252	1254	1256	1258	1260	1262	1265	1268	1270	1273	1275	1278	1279	1281	1285	1287	1291	1292	1296	1297	1299	1303	1305	1308	1310	1313	1317	1318	1323	1323	1324	1326	1328	1333	1337	1341	1343	1345	1347	1351	1355	1359	1360	1362	1363	1365	1368	1371	1375	1378	1384	1387	1390	1392	1394	1397	1399	1401	1405	1407	1412	1416	1425	1435	1452	0	0	1951	0	0	902	884	860	845	838	835	833	833	834	832	787	709	694	687	683	680	679	676	671	667	665	663	661	656	653	653	654	654	654	654	655	653	652	651	650	648	647	646	646	643	642	640	639	638	638	639	641	643	643	643	642	642	642	643	643	643	643	643	644	642	642	641	642	644	644	644	645	649	657	663	668	670	665	655	651	653	659	666	671	673	674	673	673	672	672	668	662	655	654	655	657	659	661	662	662	661	661	661	660	659	659	658	657	655	655	656	656	655	655	656	657	657	657	658	659	659	660	661	662	662	664	664	666	665	667	666	666	666	665	665	666	666	666	666	666	667	668	669	670	670	672	674	675	675	673	672	672	673	674	674	673	671	671	672	672	674	677	679	679	678	678	679	682	682	682	682	684	684	684	684	685	686	688	689	689	690	689	690	690	692	692	692	693	694	697	701	707	711	715	715	718	716	718	718	720	720	720	722	730	740	750	754	756	755	759	766	773	776	776	773	772	770	771	770	770	771	771	774	777	779	780	780	782	781	779	778	778	780	781	782	781	781	782	783	782	782	781	781	783	785	786	785	785	786	795	822	0	996	1016	1024	1029	1031	1032	1031	1030	1028	1027	1028	1029	1027	1025	1022	1020	1018	1019	1018	1018	1017	1014	1012	1009	1008	1005	1001	996	989	984	978	976	971	968	961	957	955	953	951	948	946	947	949	950	950	949	951	957	976	1001	1019	1023	1020	1019	1019	1020	1022	1021	1020	1017	1017	1015	1013	1011	1013	1014	1013	1011	1010	1012	0
0	1525	1491	1499	1528	1553	1568	1573	1558	1558	1567	1569	1560	1554	1570	1589	1595	1597	1600	1593	1579	1597	0	0	0	0	0	0	1097	1075	1067	1065	1071	1076	1076	1076	1075	1081	1079	1085	1083	1084	1084	1091	1095	1103	1103	1101	1102	1106	1109	1108	1110	1115	1121	1120	1115	1114	1117	1123	1127	1128	1128	1128	1132	1135	1136	1138	1138	1142	1151	1148	1145	1143	1150	1158	1157	1157	1156	1157	1161	1166	1168	1167	1168	1169	1166	1164	1168	1176	1175	1179	1175	1181	1186	1189	1190	1188	1189	1190	1199	1203	1209	1210	1205	1201	1203	1214	1221	1224	1222	1220	1219	1228	1232	1234	1231	1232	1234	1241	1242	1241	1246	1249	1250	1252	1253	1256	1258	1260	1261	1263	1266	1271	1275	1277	1278	1281	1284	1288	1292	1292	1293	1294	1296	1300	1303	1306	1308	1312	1316	1318	1321	1323	1324	1326	1327	1332	1335	1339	1341	1344	1347	1350	1353	1355	1357	1359	1360	1362	1365	1369	1374	1377	1382	1384	1388	1390	1393	1396	1398	1401	1404	1408	1412	1417	1427	1442	0	0	1953	0	0	899	880	872	857	842	834	831	831	831	832	827	749	698	688	682	679	677	675	673	667	663	662	660	658	652	649	648	649	649	649	651	650	650	648	648	647	645	644	644	643	641	640	638	637	636	635	635	634	637	639	641	640	639	638	640	639	640	640	642	642	642	640	639	639	642	643	643	642	644	650	658	664	667	662	654	649	650	656	663	668	670	671	671	671	670	669	667	662	655	652	653	654	655	656	658	658	659	658	660	658	657	656	656	655	653	652	653	653	653	652	652	653	653	654	654	655	655	657	659	659	659	659	660	661	662	662	663	663	662	661	660	662	664	663	663	662	662	663	665	666	666	667	669	670	671	669	669	669	671	671	672	670	668	668	670	671	673	673	674	675	677	677	677	679	680	678	679	679	680	680	681	681	682	683	684	684	685	685	686	686	687	689	689	690	690	693	696	702	707	711	713	715	714	714	715	716	716	715	717	723	733	742	747	750	750	754	762	769	773	773	771	770	769	769	768	768	768	768	770	773	776	777	778	778	777	776	776	777	778	779	778	777	777	778	780	779	779	779	778	779	780	783	782	782	782	786	799	0	0	998	1014	1024	1026	1027	1027	1027	1024	1023	1024	1026	1025	1024	1021	1019	1017	1017	1017	1016	1015	1012	1011	1008	1006	1003	1000	995	989	982	977	973	969	964	960	956	954	952	950	947	946	946	948	948	949	948	949	954	970	995	1014	1021	1019	1019	1018	1020	1021	1019	1018	1015	1016	1013	1013	1011	1011	1012	1013	1010	1007	1008	0
0	1496	1502	1506	1524	1548	1567	1571	1575	1566	1574	1570	1568	1563	1571	1587	1593	1601	1606	1600	1593	1577	0	0	0	0	0	0	1051	1060	1065	1055	1062	1064	1061	1071	1076	1082	1076	1081	1080	1081	1080	1086	1090	1099	1099	1098	1100	1105	1109	1109	1112	1119	1125	1125	1125	1122	1123	1125	1131	1130	1128	1123	1129	1134	1140	1138	1141	1144	1151	1144	1145	1143	1151	1151	1154	1152	1155	1156	1162	1167	1172	1171	1171	1172	1173	1169	1174	1181	1183	1183	1178	1179	1184	1186	1191	1188	1190	1193	1203	1209	1211	1210	1207	1206	1212	1217	1223	1223	1222	1220	1222	1228	1231	1234	1238	1239	1237	1239	1243	1246	1252	1252	1252	1253	1254	1256	1258	1261	1262	1264	1267	1271	1275	1279	1280	1282	1284	1288	1292	1293	1295	1295	1297	1299	1302	1305	1309	1313	1316	1318	1321	1323	1324	1327	1329	1333	1336	1340	1342	1344	1347	1350	1353	1355	1357	1360	1363	1365	1369	1372	1376	1377	1381	1383	1389	1391	1394	1395	1399	1402	1407	1410	1416	1424	1438	1474	0	1938	1958	0	902	884	874	868	859	843	836	832	831	832	831	808	722	694	687	682	679	676	674	671	668	664	662	659	658	652	649	648	648	647	646	648	649	650	649	648	647	645	645	644	644	643	642	638	636	635	635	634	635	636	640	642	643	640	639	639	639	638	638	640	642	642	642	642	642	643	643	643	643	646	650	656	662	666	663	655	650	650	656	662	668	670	673	672	672	670	670	668	665	657	654	652	653	654	657	658	659	659	660	660	659	657	657	657	657	654	653	653	654	653	653	653	654	654	655	655	656	655	657	658	658	658	659	660	661	662	662	662	663	662	662	662	664	663	664	663	663	663	664	665	666	666	667	669	670	671	671	671	670	670	671	671	671	669	669	670	671	671	671	672	674	676	678	677	679	680	681	680	681	681	681	681	682	682	683	684	684	685	686	687	687	687	689	690	692	691	693	696	702	706	711	714	716	717	717	718	717	716	713	714	719	730	740	745	748	750	754	761	768	772	772	771	771	770	769	767	767	768	768	770	773	777	779	779	778	777	776	776	777	778	779	777	777	779	780	781	780	780	779	779	780	781	782	782	781	782	783	789	801	0	0	994	1010	1018	1022	1025	1026	1025	1024	1025	1027	1026	1025	1023	1021	1019	1019	1019	1018	1016	1013	1011	1009	1007	1003	1000	996	991	984	977	973	967	963	960	958	956	953	952	950	948	947	948	949	949	949	948	953	965	990	1011	1020	1020	1021	1022	1022	1023	1021	1020	1018	1019	1018	1019	1015	1014	1013	1015	1013	1010	1008	0
0	1551	1514	1531	1525	1536	1549	1570	1580	1576	1579	1581	1577	1576	1580	1594	1594	1604	1605	1601	1596	0	0	0	0	0	0	0	0	1054	1058	1065	1060	1066	1072	1073	1074	1076	1073	1075	1074	1081	1079	1085	1089	1095	1098	1099	1100	1104	1105	1104	1108	1116	1122	1122	1124	1126	1122	1123	1126	1128	1123	1121	1125	1137	1142	1141	1140	1145	1150	1145	1146	1141	1145	1145	1149	1149	1152	1153	1156	1159	1164	1165	1169	1171	1179	1176	1175	1175	1182	1184	1180	1180	1186	1187	1191	1189	1191	1193	1202	1208	1209	1209	1206	1211	1215	1220	1221	1219	1217	1217	1222	1225	1227	1230	1236	1237	1236	1237	1241	1245	1254	1252	1250	1252	1253	1255	1257	1260	1262	1264	1267	1271	1272	1276	1278	1281	1282	1285	1287	1291	1292	1294	1296	1299	1301	1304	1307	1312	1313	1316	1318	1321	1323	1326	1329	1333	1335	1338	1340	1343	1346	1347	1348	1350	1354	1357	1362	1365	1369	1373	1375	1376	1377	1380	1384	1387	1390	1392	1396	1400	1405	1411	1419	1432	1455	0	0	1953	0	906	886	874	867	864	857	841	832	828	828	830	829	765	702	689	683	679	676	673	668	666	663	661	657	657	655	650	647	645	645	644	642	644	643	646	645	646	645	645	644	642	641	641	639	637	633	632	630	631	631	632	634	637	639	640	638	638	637	637	634	635	635	638	638	640	641	642	641	642	642	643	645	649	656	662	660	654	648	649	654	661	666	669	670	670	669	668	668	666	663	657	652	651	651	652	653	656	656	656	657	658	658	656	654	655	655	653	651	651	651	651	651	652	652	651	652	652	653	654	655	656	656	654	654	656	657	658	658	659	659	659	660	659	660	659	659	660	659	659	659	661	663	665	665	667	666	667	668	670	670	668	668	668	669	668	668	668	668	668	668	670	672	674	674	675	676	678	679	678	677	678	678	678	678	678	677	678	678	680	683	685	685	684	685	688	689	690	690	693	698	702	706	710	713	714	713	714	712	712	710	711	715	724	734	740	744	746	750	757	764	769	770	770	770	768	766	765	765	765	765	766	768	773	776	777	776	774	773	772	774	775	776	775	776	777	778	777	777	777	777	776	776	777	779	780	778	780	778	780	785	800	0	0	0	0	1000	1009	1016	1020	1022	1023	1023	1023	1022	1021	1020	1018	1018	1017	1015	1013	1011	1009	1006	1003	999	996	994	990	984	978	972	965	958	957	955	954	951	949	947	946	944	946	946	947	946	946	949	959	983	1006	1018	1019	1018	1019	1019	1020	1019	1018	1017	1016	1015	1015	1011	1010	1010	1013	1011	1008	1006	0
0	1552	1566	1534	1525	1530	1552	1567	1579	1587	1592	1587	1577	1577	1585	1590	1595	1599	1599	1606	1589	1591	0	0	0	0	0	0	1054	1054	1062	1062	1072	1075	1079	1081	1081	1080	1073	1073	1072	1080	1086	1089	1087	1092	1098	1104	1108	1110	1110	1106	1105	1106	1110	1112	1118	1124	1125	1126	1128	1129	1128	1128	1134	1140	1142	1142	1143	1147	1153	1151	1149	1141	1145	1147	1154	1155	1159	1162	1160	1157	1157	1164	1171	1174	1180	1184	1182	1181	1185	1191	1190	1189	1191	1188	1190	1187	1192	1193	1200	1209	1210	1208	1204	1207	1210	1213	1211	1213	1216	1223	1226	1227	1228	1230	1232	1230	1234	1237	1244	1248	1260	1254	1251	1252	1254	1257	1258	1262	1265	1267	1269	1271	1272	1277	1280	1282	1282	1285	1286	1290	1292	1295	1298	1301	1303	1306	1310	1313	1314	1317	1320	1322	1324	1327	1330	1333	1336	1338	1342	1344	1347	1348	1351	1352	1356	1359	1363	1365	1369	1374	1378	1377	1378	1380	1385	1387	1389	1392	1396	1401	1407	1414	1425	1443	0	0	1969	0	913	892	878	870	866	864	858	844	833	829	828	830	821	732	695	686	682	678	675	671	667	665	663	661	657	655	655	652	649	646	645	643	641	641	641	643	643	643	645	644	644	641	641	640	639	637	634	633	632	633	633	632	633	634	638	639	640	639	640	639	636	635	634	637	638	641	643	644	643	643	645	645	646	649	655	660	660	654	649	650	654	661	666	669	671	670	669	667	668	668	666	660	655	651	651	651	654	655	657	656	657	657	658	657	657	656	655	652	651	652	652	652	651	652	652	651	652	652	654	655	657	656	656	655	655	656	658	658	657	657	659	660	661	660	661	660	660	660	660	660	660	662	664	665	666	668	669	669	671	671	671	669	669	670	670	669	669	669	669	668	669	670	672	673	674	675	675	677	679	678	678	676	677	676	678	679	678	678	679	681	682	683	683	684	685	690	690	692	691	694	697	702	707	709	713	714	714	713	711	711	710	712	715	721	733	740	745	747	750	755	762	769	771	772	771	770	768	765	765	765	765	767	769	773	776	777	777	774	774	772	774	775	776	777	777	778	778	777	777	776	778	776	776	778	779	780	779	780	778	778	779	785	796	818	0	0	0	0	996	1009	1017	1021	1022	1022	1021	1021	1020	1020	1019	1018	1016	1014	1013	1010	1008	1003	999	996	995	991	985	978	973	967	961	958	956	956	953	951	948	946	945	945	946	947	947	947	948	958	981	1005	1018	1021	1021	1021	1020	1021	1019	1019	1017	1016	1014	1015	1013	1013	1013	1015	1012	1011	1009	0
0	1550	1546	1546	1528	1544	1559	1560	1566	1585	1594	1583	1572	1568	1571	1585	1593	1589	1589	1584	1595	0	0	0	0	0	0	0	1054	1056	1050	1054	1066	1072	1076	1076	1081	1076	1071	1069	1066	1084	1091	1094	1083	1089	1097	1104	1105	1108	1108	1104	1104	1101	1104	1104	1112	1118	1121	1118	1116	1120	1124	1133	1138	1142	1140	1141	1142	1147	1151	1153	1149	1142	1143	1146	1151	1157	1161	1165	1164	1158	1157	1160	1164	1167	1169	1170	1172	1173	1178	1181	1186	1190	1194	1192	1190	1185	1184	1192	1199	1203	1204	1206	1207	1208	1210	1211	1207	1209	1214	1223	1222	1223	1223	1230	1229	1228	1231	1237	1244	1247	1256	1251	1250	1251	1253	1256	1258	1261	1263	1264	1265	1268	1270	1273	1276	1279	1281	1283	1284	1287	1289	1292	1296	1300	1302	1305	1307	1309	1312	1316	1319	1321	1323	1326	1329	1330	1333	1335	1340	1344	1347	1347	1349	1350	1355	1358	1362	1364	1367	1372	1375	1376	1377	1379	1382	1384	1386	1389	1394	1400	1406	1416	1432	0	0	0	0	0	893	879	870	864	861	859	855	844	830	826	825	830	799	710	688	681	676	673	669	667	663	663	660	660	656	654	653	649	647	643	641	640	638	638	636	637	637	637	639	640	641	638	636	635	634	634	632	632	630	631	630	628	627	627	631	634	635	636	636	637	634	634	633	634	634	636	639	641	642	642	642	643	644	647	651	655	656	652	647	647	651	658	664	668	668	667	665	665	665	666	665	661	654	649	647	648	650	653	654	653	654	655	657	657	656	655	652	650	649	650	649	650	649	650	648	648	649	650	652	653	653	653	654	654	653	654	656	656	655	655	656	658	658	658	657	658	657	657	657	657	657	659	662	663	663	664	666	667	668	669	670	668	668	668	668	667	666	666	666	666	667	669	669	670	669	672	672	674	675	675	673	672	673	673	674	675	674	675	675	678	678	679	678	680	681	685	686	687	686	688	691	695	700	704	707	709	709	709	708	709	709	711	712	717	726	735	740	742	744	749	756	765	769	770	768	766	765	764	764	762	763	764	766	770	774	776	775	772	770	769	772	773	774	775	775	774	774	774	775	775	776	774	773	774	776	776	777	776	776	776	776	777	780	790	807	823	836	0	0	0	996	1007	1014	1017	1018	1017	1017	1017	1015	1014	1012	1012	1012	1009	1004	1001	998	995	993	988	983	977	973	967	961	957	954	954	952	949	944	943	943	946	946	947	945	945	945	955	976	1001	1017	1021	1021	1021	1020	1019	1016	1015	1014	1013	1011	1009	1008	1009	1011	1015	1014	0	0	0
0	1531	1546	1518	1563	1583	1557	1555	1567	1586	1587	1582	1578	1562	1567	1575	1586	1590	1586	1569	1579	0	0	0	0	0	0	0	1070	1066	1064	1052	1063	1067	1072	1078	1082	1079	1080	1078	1075	1085	1089	1087	1079	1085	1092	1097	1101	1103	1104	1103	1107	1108	1111	1110	1116	1118	1118	1114	1114	1118	1125	1129	1137	1141	1140	1140	1141	1150	1153	1151	1148	1145	1147	1147	1153	1158	1165	1165	1163	1162	1163	1161	1164	1166	1169	1170	1171	1176	1173	1176	1183	1191	1193	1192	1189	1187	1187	1196	1203	1202	1203	1204	1209	1206	1208	1208	1206	1210	1217	1225	1222	1223	1223	1228	1232	1235	1239	1241	1244	1246	1252	1252	1250	1251	1253	1258	1259	1262	1263	1265	1267	1269	1271	1274	1276	1279	1281	1283	1286	1288	1291	1293	1297	1300	1303	1305	1307	1308	1314	1318	1321	1322	1324	1327	1329	1330	1333	1335	1339	1344	1348	1349	1351	1353	1358	1360	1362	1364	1367	1370	1374	1376	1379	1381	1385	1386	1388	1391	1398	1404	1413	1425	1459	0	0	1940	0	901	882	871	865	861	860	858	856	846	833	828	827	829	749	700	686	678	674	670	667	666	665	664	662	660	658	655	653	648	645	641	641	639	638	636	635	635	635	635	637	638	640	638	637	636	636	636	634	633	631	631	630	629	627	626	629	631	634	635	636	636	636	636	635	634	636	637	640	641	642	644	644	645	646	648	652	655	657	652	648	647	652	658	664	668	669	669	667	667	667	668	667	662	656	649	647	646	648	650	653	653	654	654	656	656	656	654	652	651	651	650	649	649	649	649	648	649	650	651	651	650	650	652	654	655	655	655	657	656	656	656	657	659	659	659	659	659	659	659	659	658	658	659	661	662	662	664	666	668	669	670	670	670	672	671	671	669	669	668	668	667	668	669	670	670	671	671	672	674	676	675	674	672	674	673	674	674	675	676	677	678	677	677	677	678	682	684	685	686	686	688	690	695	698	703	706	708	710	709	709	708	708	710	711	715	723	733	740	742	743	746	753	763	768	770	768	767	767	765	764	762	763	765	768	772	776	778	776	772	770	769	772	773	775	776	775	774	775	777	777	776	775	774	774	776	777	776	776	776	777	777	776	776	776	781	789	796	805	812	823	0	0	0	1000	1010	1016	1018	1017	1017	1015	1014	1014	1014	1013	1010	1006	1005	1003	1001	998	991	984	977	974	970	966	960	956	956	956	951	946	944	946	947	945	946	945	946	946	954	975	1004	1020	1023	1024	1025	1024	1022	1019	1018	1015	1018	1017	1014	1011	1015	1018	1024	0	0	0	0
0	1551	1510	1555	1560	1585	1580	1555	1556	1577	1579	1578	1572	1575	1572	1571	1585	1595	1590	1571	1557	0	0	0	0	0	0	0	1069	1066	1065	1069	1070	1071	1070	1073	1077	1077	1080	1083	1081	1083	1087	1086	1081	1087	1094	1097	1093	1097	1101	1105	1113	1115	1122	1118	1122	1117	1116	1111	1113	1117	1120	1126	1133	1143	1141	1138	1136	1148	1147	1145	1142	1146	1148	1148	1151	1154	1159	1156	1160	1157	1165	1157	1159	1160	1169	1168	1171	1168	1170	1170	1178	1183	1186	1188	1185	1186	1182	1188	1195	1197	1197	1199	1204	1205	1204	1204	1207	1214	1219	1222	1221	1224	1225	1226	1232	1237	1238	1240	1243	1248	1249	1250	1248	1250	1252	1256	1257	1258	1259	1264	1266	1269	1270	1272	1274	1277	1279	1282	1285	1287	1289	1292	1295	1298	1300	1302	1304	1306	1311	1315	1318	1318	1321	1323	1326	1329	1332	1334	1337	1342	1346	1346	1347	1350	1355	1357	1360	1362	1366	1367	1371	1373	1376	1379	1384	1386	1388	1391	1397	1405	1414	1434	0	0	0	0	908	887	874	865	860	856	855	854	854	845	832	825	823	815	720	688	679	673	670	665	663	662	661	660	656	655	654	653	649	645	641	638	637	637	637	635	632	632	632	632	632	632	632	632	632	633	633	633	632	631	629	629	627	625	623	623	624	626	629	631	631	631	631	633	632	632	632	634	636	635	636	639	641	643	644	646	649	652	653	651	645	644	648	656	662	666	665	666	664	665	665	665	665	661	655	648	644	643	643	646	648	650	650	651	652	654	653	652	650	650	649	647	646	647	648	648	647	648	649	650	649	649	648	650	651	652	652	653	654	654	654	655	656	657	657	658	657	658	656	656	656	655	655	655	657	657	658	659	660	663	664	666	666	667	667	668	667	667	667	666	666	666	666	667	668	669	669	670	670	673	675	674	672	671	671	670	670	672	673	675	674	674	674	675	676	677	679	679	680	680	682	684	687	691	693	698	700	702	705	706	707	706	706	707	708	712	716	726	734	738	740	742	748	758	763	765	766	765	764	763	762	761	761	762	765	769	773	774	773	770	766	766	769	771	773	774	774	773	774	776	776	774	772	772	771	773	773	772	772	771	774	774	774	772	772	773	778	782	787	790	795	801	818	0	0	989	1004	1012	1013	1012	1011	1011	1013	1013	1012	1009	1007	1007	1006	1005	1000	994	985	977	973	970	966	961	956	955	954	950	946	943	943	945	944	946	945	945	945	950	972	1001	1019	1022	1022	1023	1024	1024	1022	1019	1016	1017	1018	1014	1013	0	0	0	0	0	0	0
0	0	1530	1536	1544	1555	1562	1553	1540	1538	1572	1557	1578	1580	1582	1571	1579	1590	1594	1579	1564	1575	0	0	0	0	0	0	1058	1064	1070	1082	1082	1079	1074	1070	1084	1083	1087	1088	1089	1085	1090	1087	1086	1093	1100	1099	1093	1094	1100	1103	1110	1117	1125	1124	1121	1120	1116	1114	1116	1120	1121	1123	1134	1147	1146	1143	1136	1142	1143	1145	1141	1140	1144	1146	1152	1152	1155	1152	1157	1158	1161	1157	1161	1167	1178	1180	1183	1182	1180	1180	1185	1188	1183	1184	1182	1188	1189	1188	1191	1192	1197	1199	1203	1208	1206	1207	1207	1217	1222	1226	1226	1230	1232	1230	1234	1236	1240	1243	1245	1248	1248	1249	1248	1249	1252	1256	1257	1258	1260	1266	1269	1271	1273	1275	1278	1279	1280	1282	1285	1288	1291	1294	1298	1300	1301	1303	1306	1309	1313	1315	1317	1318	1320	1322	1326	1331	1334	1335	1338	1342	1345	1346	1349	1351	1355	1358	1360	1362	1365	1367	1370	1373	1376	1379	1384	1387	1391	1394	1402	1412	1428	0	0	1891	0	911	891	878	870	864	859	856	855	854	854	844	833	826	822	778	705	682	676	671	670	665	663	661	660	657	653	650	650	650	647	643	640	638	638	638	637	634	633	632	632	630	630	630	629	629	630	632	635	635	633	631	630	629	626	625	625	624	624	625	626	628	631	632	632	632	632	632	633	635	636	635	635	637	640	642	644	645	648	651	653	652	648	646	649	656	662	665	666	666	665	0	665	664	665	663	658	651	646	643	642	644	646	650	650	652	652	653	652	651	650	650	651	649	648	646	647	647	647	648	648	649	648	648	649	651	651	650	651	652	653	653	654	654	656	656	657	656	658	658	658	657	657	656	656	655	657	657	659	659	660	663	664	664	664	666	668	668	668	668	669	669	669	667	666	666	668	669	670	671	672	673	675	673	673	672	673	671	671	671	674	675	675	673	674	675	678	678	681	681	681	681	682	684	686	690	693	697	699	700	703	704	706	705	706	706	707	710	715	724	733	738	741	743	748	757	762	765	766	767	767	765	763	762	762	764	767	771	774	774	772	769	767	767	769	772	774	776	775	774	775	776	776	774	772	771	770	773	773	773	773	772	774	774	775	773	772	771	773	775	779	783	786	787	792	803	833	0	0	999	1008	1013	1014	1014	1016	1015	1015	1013	1012	1013	1012	1013	1009	1003	993	985	981	977	974	968	963	958	957	953	951	949	948	948	947	949	951	952	952	955	974	1002	1020	1026	1028	1028	1026	1026	1025	1025	1020	1021	1020	0	0	0	0	0	0	0	0	0
0	1559	1528	1509	0	1535	1533	1556	1536	1518	1527	1568	1576	1574	1571	1570	1563	1581	1595	1595	1578	1565	0	0	0	0	0	1056	1050	1058	1074	1077	1077	1081	1084	1087	1082	1081	1083	1086	1084	1083	1085	1084	1088	1096	1101	1101	1097	1099	1098	1100	1103	1109	1117	1117	1118	1116	1114	1117	1119	1120	1119	1122	1133	1143	1140	1138	1134	1137	1140	1148	1145	1144	1142	1147	1148	1151	1153	1154	1159	1161	1159	1150	1153	1163	1173	1175	1181	1182	1183	1182	1184	1183	1177	1176	1177	1184	1188	1187	1190	1192	1197	1203	1204	1208	1207	1207	1207	1214	1219	1224	1225	1226	1228	1227	1227	1227	1229	1239	1244	1248	1246	1246	1247	1248	1250	1253	1254	1255	1257	1262	1265	1269	1270	1274	1276	1278	1280	1282	1286	1287	1288	1291	1295	1298	1298	1301	1304	1308	1311	1313	1314	1316	1316	1320	1324	1329	1331	1335	1338	1339	1342	1342	1345	1347	1351	1355	1358	1361	1365	1368	1368	1370	1372	1377	1382	1389	1392	1396	1404	1418	0	0	0	0	0	891	877	868	863	859	856	854	854	852	849	839	830	824	814	751	692	676	670	666	665	662	660	656	654	651	648	646	647	646	643	641	638	637	635	636	636	635	632	629	626	626	626	625	624	624	625	626	629	629	628	627	627	626	624	623	623	625	624	623	621	622	625	629	630	630	629	630	630	632	632	632	633	633	635	636	640	642	645	649	651	650	645	644	647	654	659	663	664	664	663	663	662	662	662	662	658	652	646	643	641	641	640	644	646	649	649	650	650	648	647	648	648	647	646	645	645	645	644	644	644	646	646	646	646	647	647	647	647	648	649	651	651	651	652	652	652	651	652	654	653	653	653	654	653	652	654	655	655	656	657	659	659	659	661	663	664	665	665	666	666	667	666	665	664	664	665	667	668	669	668	669	670	669	669	669	670	669	667	669	670	672	671	671	671	674	676	678	679	679	678	679	679	682	684	687	690	693	695	695	698	702	704	704	704	705	705	707	709	718	727	734	737	739	743	751	758	763	765	765	764	763	761	759	759	760	763	767	770	769	768	766	765	765	766	769	772	773	773	772	772	773	774	774	772	770	768	769	770	770	769	770	771	771	772	770	768	766	767	770	773	775	777	778	779	783	794	817	0	0	986	1000	1008	1013	1016	1016	1016	1015	1014	1013	1012	1014	1015	1010	1003	997	994	989	983	975	968	961	957	955	954	953	952	953	955	955	957	954	955	957	976	1001	1019	1026	1029	1030	1028	1027	1026	1026	1024	0	0	0	0	0	0	0	0	0	0	0
0	1570	0	1533	1530	1545	1562	1567	1557	1538	1543	1557	1564	1562	1565	1568	1577	1577	1590	1602	1600	0	0	0	0	0	0	1027	1046	1057	1068	1074	1067	1075	1088	1091	1084	1080	1086	1088	1086	1083	1084	1083	1086	1092	1098	1099	1102	1100	1096	1094	1102	1104	1110	1118	1119	1118	1116	1118	1123	1121	1121	1125	1132	1140	1135	1135	1132	1139	1141	1151	1149	1147	1142	1145	1145	1149	1154	1159	1160	1162	1158	1152	1154	1168	1175	1177	1181	1182	1180	1184	1187	1189	1182	1183	1180	1187	1190	1195	1195	1196	1199	1205	1205	1208	1210	1213	1211	1214	1218	1225	1224	1223	1226	1230	1228	1226	1229	1236	1239	1241	1245	1246	1248	1249	1251	1253	1255	1257	1258	1263	1267	1271	1273	1275	1277	1279	1280	1282	1286	1289	1291	1294	1296	1300	1301	1303	1305	1307	1311	1314	1316	1317	1318	1322	1326	1329	1331	1335	1338	1340	1341	1343	1346	1349	1354	1358	1361	1363	1365	1368	1369	1371	1372	1377	1383	1391	1396	1401	1412	1435	0	1916	1974	0	898	881	872	865	860	855	854	853	856	851	845	835	830	826	811	725	688	677	670	666	665	663	661	656	653	651	650	648	647	645	642	640	639	639	638	637	636	634	632	629	625	624	625	624	625	624	624	624	625	626	627	625	626	626	626	625	625	626	625	624	622	622	624	628	631	631	631	631	632	633	633	634	635	634	635	634	638	640	647	650	652	649	645	644	648	654	659	664	666	665	665	664	664	663	664	665	662	655	649	645	643	641	640	642	645	648	649	650	651	647	646	646	649	647	647	645	645	644	644	644	644	646	646	645	644	645	648	647	647	646	648	650	652	651	653	651	651	649	650	652	653	655	654	655	654	655	656	657	657	656	657	658	660	661	663	664	666	668	667	667	666	667	666	666	665	665	665	667	668	668	668	668	670	669	670	669	670	670	669	669	670	671	672	671	673	674	675	676	678	680	680	681	680	682	683	687	690	693	694	695	698	702	704	704	704	706	706	705	708	714	725	732	735	736	741	749	757	761	763	764	764	764	762	759	758	759	764	768	772	771	768	767	768	767	767	768	772	774	774	774	774	774	774	774	771	770	768	769	770	771	770	769	770	772	772	771	768	764	766	767	771	773	774	776	776	777	780	787	802	0	0	0	998	1009	1016	1017	1018	1019	1020	1019	1017	1018	1020	1021	1018	1014	1013	1008	1005	995	984	974	968	964	963	961	963	962	960	959	957	962	965	970	987	1008	1025	1031	1031	1031	1029	1032	1031	0	0	0	0	0	0	0	0	0	0	0	0	0
0	0	1568	1556	1551	1539	1571	1573	1573	1558	1558	1555	1561	1563	1570	1581	1591	1588	1590	1594	1610	0	0	0	0	0	0	1106	1039	1054	1063	1068	1065	1064	1075	1087	1082	1081	1090	1096	1085	1082	1081	1084	1082	1085	1090	1098	1102	1100	1093	1096	1103	1104	1107	1118	1123	1119	1117	1122	1124	1119	1118	1121	1129	1135	1133	1135	1136	1143	1142	1150	1146	1147	1143	1147	1147	1151	1151	1155	1156	1162	1158	1154	1157	1167	1174	1173	1171	1172	1171	1176	1177	1183	1184	1189	1185	1184	1186	1192	1196	1196	1198	1202	1202	1204	1203	1210	1213	1214	1217	1222	1222	1219	1220	1225	1227	1228	1230	1233	1237	1240	1246	1245	1247	1249	1250	1252	1253	1256	1257	1261	1264	1269	1270	1272	1274	1277	1278	1281	1285	1288	1289	1291	1293	1296	1298	1301	1301	1304	1307	1312	1314	1315	1316	1320	1324	1327	1329	1331	1335	1337	1340	1341	1345	1347	1351	1354	1358	1361	1362	1366	1368	1370	1372	1377	1383	1391	1396	1404	1417	0	0	1926	0	905	887	874	866	860	854	850	850	851	853	845	836	829	827	825	785	707	682	673	667	665	662	660	657	653	649	647	647	648	646	644	640	641	638	638	634	635	633	632	629	626	623	623	623	621	621	621	621	620	620	620	620	621	621	623	623	624	623	625	624	623	621	620	619	621	624	628	628	629	629	630	631	631	632	632	633	632	633	636	644	649	650	646	642	641	645	651	657	661	662	662	662	663	662	662	662	663	661	654	647	643	641	640	637	639	641	643	645	647	648	646	644	643	645	644	644	643	643	642	642	641	642	643	643	641	641	643	645	645	644	644	646	647	650	649	650	649	648	647	646	648	650	654	652	652	651	653	653	653	653	653	654	656	657	659	660	662	663	665	665	664	664	664	664	663	663	663	664	666	666	666	664	665	666	668	667	666	665	665	666	667	669	669	669	669	670	671	672	673	674	676	677	678	677	679	680	683	684	689	690	693	695	699	700	700	701	703	703	702	703	709	719	726	730	733	737	743	752	757	759	760	760	760	758	757	756	756	759	764	768	769	766	766	767	768	766	766	769	771	773	772	772	771	772	772	770	768	765	766	767	768	767	767	767	769	769	767	764	761	760	762	765	766	768	770	771	770	770	771	778	789	810	0	0	988	1004	1012	1018	1021	1025	1024	1022	1020	1022	1025	1028	1027	1028	1032	1030	1031	1020	1006	994	998	972	965	964	964	964	959	0	0	0	0	988	1012	1028	1030	1027	1026	0	0	0	0	0	0	0	0	0	0	0	0	0	0	0	0
0	1535	1557	1566	1560	1565	1545	1576	1591	1587	1567	1556	1560	1566	1576	1586	1600	1593	1590	1599	1600	0	0	0	0	0	0	1066	1050	1058	1059	1065	1060	1063	1069	1085	1088	1091	1098	1094	1081	1073	1078	1086	1085	1089	1088	1093	1097	1095	1095	1100	1107	1110	1109	1120	1120	1122	1118	1120	1118	1118	1118	1123	1131	1136	1132	1133	1136	1144	1144	1148	1143	1142	1144	1148	1150	1149	1146	1148	1153	1160	1161	1160	1163	1171	1176	1175	1175	1178	1177	1178	1177	1182	1183	1190	1184	1185	1187	1194	1196	1195	1197	1203	1205	1207	1207	1213	1214	1215	1216	1223	1222	1224	1224	1231	1230	1232	1234	1238	1237	1239	1245	1245	1246	1249	1251	1253	1255	1257	1259	1262	1267	1269	1270	1272	1275	1276	1278	1280	1284	1287	1291	1293	1295	1297	1299	1301	1302	1304	1308	1312	1316	1317	1320	1322	1325	1327	1329	1331	1335	1338	1342	1344	1347	1349	1352	1356	1360	1363	1363	1366	1368	1371	1374	1378	1384	1392	1399	1410	1431	0	1949	1961	0	896	881	870	865	859	854	850	850	850	846	836	830	826	826	822	768	701	682	671	666	665	663	660	656	653	650	648	647	646	644	643	641	640	639	638	636	635	632	631	629	628	626	625	625	622	621	620	620	620	619	619	619	619	620	621	621	622	623	625	624	624	623	622	620	617	620	624	628	629	630	630	631	630	632	632	633	633	634	637	643	648	651	648	645	642	645	651	659	662	663	663	0	664	663	663	664	664	663	655	649	644	642	642	640	642	641	643	645	646	647	646	646	645	646	646	646	644	644	643	643	642	643	643	644	642	643	644	646	645	644	645	647	648	649	650	651	650	650	648	647	649	652	655	653	653	652	653	653	655	655	655	655	656	659	661	662	663	664	665	666	666	666	665	665	664	665	664	665	666	666	666	666	667	669	670	670	667	665	666	667	668	670	670	671	670	671	671	673	674	675	675	676	677	678	679	680	681	683	686	689	692	694	697	699	700	701	701	703	701	703	706	715	724	730	734	737	741	748	753	758	759	760	760	760	758	757	756	759	764	769	770	767	767	768	769	766	766	769	771	773	772	772	771	770	770	769	766	764	765	768	769	768	768	769	769	768	767	766	763	761	760	762	763	767	768	769	768	767	767	768	773	781	795	0	0	0	993	1007	1020	1030	1033	1031	1030	1028	1037	1044	1043	1048	1061	1079	0	0	0	0	0	0	0	0	0	0	0	0	0	0	0	0	0	0	0	0	0	0	0	0	0	0	0	0	0	0	0	0	0	0	0	0	0
0	1563	1540	1565	1575	1559	1555	1559	1588	1591	1572	1555	1564	1571	1576	1588	1597	1596	1595	1600	1620	1617	0	0	0	0	0	1058	1058	1055	1056	1054	1056	1063	1072	1079	1085	1090	1094	1086	1072	1065	1072	1081	1086	1089	1088	1089	1094	1098	1098	1103	1107	1113	1109	1119	1117	1122	1116	1120	1119	1123	1120	1121	1126	1135	1131	1136	1137	1141	1137	1140	1141	1141	1143	1143	1147	1146	1143	1145	1150	1161	1161	1158	1161	1168	1177	1175	1174	1176	1177	1176	1174	1175	1178	1179	1182	1181	1186	1190	1198	1196	1199	1202	1207	1212	1214	1218	1213	1214	1215	1220	1221	1223	1223	1228	1229	1229	1230	1235	1238	1240	1242	1242	1243	1245	1249	1252	1254	1256	1257	1260	1263	1266	1267	1269	1272	1275	1277	1278	1281	1284	1287	1290	1293	1294	1297	1300	1301	1304	1307	1311	1314	1315	1319	1321	1325	1326	1328	1329	1333	1337	1340	1343	1345	1348	1349	1352	1355	1359	1362	1365	1367	1370	1372	1378	1383	1391	1401	1416	0	0	1921	0	907	885	873	864	860	854	851	849	849	845	834	828	824	822	822	818	752	698	677	666	660	659	657	655	650	648	645	645	642	642	640	641	638	637	635	635	633	631	628	627	626	625	624	623	621	620	619	619	618	618	617	616	615	616	617	617	616	616	617	620	620	620	620	618	617	614	615	619	624	626	628	627	628	628	629	629	630	630	631	632	636	643	649	648	644	640	641	647	655	660	661	661	659	0	658	660	660	661	659	654	648	644	641	641	640	641	640	640	641	643	645	644	644	644	644	645	644	643	642	641	641	640	641	641	641	641	641	643	643	643	641	642	643	645	646	647	646	646	645	646	646	648	650	652	651	651	649	651	650	651	652	653	653	654	656	658	658	659	658	660	661	663	663	663	662	662	663	663	664	664	664	664	663	665	664	667	666	666	663	663	663	665	666	667	668	669	669	669	670	672	673	673	672	673	675	677	678	679	680	682	685	689	691	694	696	697	697	697	697	698	699	703	710	719	726	730	732	735	743	750	755	757	758	757	757	755	755	754	756	760	766	767	766	765	766	767	766	766	768	769	770	770	769	767	767	768	767	763	761	761	765	766	767	767	768	767	767	765	763	759	757	756	758	759	761	762	764	764	763	761	760	763	765	771	778	790	812	0	0	1000	1018	1030	1035	1036	1037	1046	1056	1067	1078	0	0	0	0	0	0	0	0	0	0	0	0	0	0	0	0	0	0	0	0	0	0	0	0	0	0	0	0	0	0	0	0	0	0	0	0	0	0	0
0	1533	1546	1552	1581	1547	1547	1555	1563	1571	1558	1554	1561	1573	1583	1591	1608	1602	1603	1602	0	1630	0	0	0	0	0	1073	1060	1055	1056	1058	1060	1067	1067	1074	1076	1084	1089	1079	1069	1065	1067	1078	1087	1094	1092	1090	1093	1100	1103	1103	1108	1117	1119	1124	1122	1127	1118	1120	1120	1126	1127	1126	1130	1135	1133	1136	1135	1135	1132	1135	1144	1144	1147	1145	1149	1152	1155	1157	1155	1159	1161	1164	1167	1169	1174	1171	1175	1176	1182	1181	1181	1177	1174	1174	1180	1185	1186	1189	1195	1196	1204	1203	1208	1207	1213	1212	1210	1212	1217	1222	1222	1223	1224	1228	1231	1230	1230	1238	1241	1244	1241	1241	1243	1244	1248	1251	1254	1255	1259	1262	1265	1266	1268	1271	1274	1277	1278	1279	1281	1284	1288	1291	1294	1296	1299	1300	1303	1305	1309	1312	1314	1316	1319	1323	1327	1328	1329	1331	1335	1339	1341	1344	1346	1350	1350	1354	1356	1360	1363	1366	1368	1372	1375	1380	1386	1395	1408	1447	0	0	1938	0	893	877	867	861	859	854	852	850	847	836	828	824	823	822	822	816	744	696	677	666	659	656	655	652	649	646	646	645	642	640	640	640	638	634	633	633	633	631	628	626	626	625	623	621	620	621	621	620	618	618	618	617	616	615	616	615	615	616	616	617	618	617	618	618	619	616	616	617	621	624	627	627	628	629	631	630	630	630	632	633	636	640	647	649	646	641	641	646	655	661	663	662	0	661	661	662	663	663	662	656	651	646	643	641	642	643	644	643	644	646	647	645	643	644	645	646	645	643	642	641	642	642	643	643	642	642	643	645	645	644	643	644	644	644	644	645	646	647	647	648	649	650	650	650	650	650	650	650	650	651	653	653	653	654	657	658	658	658	659	661	663	665	664	663	662	662	662	663	664	664	664	664	664	665	665	666	666	666	665	665	666	666	666	666	668	669	670	671	672	673	674	673	672	673	675	677	678	679	681	682	686	689	692	695	698	698	696	695	696	697	699	702	709	718	725	729	731	735	742	750	756	757	758	759	759	757	755	755	756	760	765	767	766	765	767	767	767	767	769	770	771	771	770	768	768	768	767	763	761	761	764	766	767	766	766	766	766	764	763	761	760	758	758	758	759	761	763	764	762	759	756	758	758	761	762	766	769	778	806	0	0	1026	1041	1046	1049	1061	1078	0	0	0	0	0	0	0	0	0	0	0	0	0	0	0	0	0	0	0	0	0	0	0	0	0	0	0	0	0	0	0	0	0	0	0	0	0	0	0	0	0
0	1516	1533	1572	1542	1538	1535	1552	1556	1555	1553	1552	1559	1569	1576	1587	1591	1603	1597	1567	1572	0	0	0	0	0	0	1071	1058	1049	1054	1058	1065	1062	1065	1065	1073	1078	1083	1080	1079	1071	1070	1071	1081	1090	1093	1090	1094	1099	1103	1102	1105	1115	1116	1120	1117	1119	1114	1117	1121	1126	1127	1128	1126	1131	1130	1137	1132	1132	1131	1137	1137	1139	1143	1144	1145	1152	1157	1161	1156	1156	1157	1163	1169	1172	1174	1170	1170	1169	1174	1174	1177	1175	1177	1177	1185	1188	1189	1189	1194	1196	1202	1198	1206	1202	1205	1204	1208	1212	1216	1219	1220	1219	1222	1226	1230	1228	1229	1234	1242	1247	1241	1241	1241	1243	1245	1249	1252	1255	1257	1260	1263	1264	1266	1269	1272	1276	1278	1279	1280	1283	1286	1288	1291	1294	1297	1298	1299	1303	1306	1310	1312	1315	1318	1321	1324	1326	1327	1329	1333	1337	1339	1342	1342	1347	1348	1351	1352	1356	1361	1363	1366	1370	1374	1380	1384	1396	1413	0	0	1919	0	900	880	868	862	857	855	851	850	844	836	827	822	821	820	820	820	811	736	690	672	661	654	651	648	646	644	643	643	641	639	638	637	636	634	631	631	631	630	628	624	622	621	621	619	617	617	618	619	618	616	615	614	613	612	613	612	613	613	614	612	612	613	614	613	614	614	613	613	614	617	619	622	623	625	626	628	629	630	630	630	630	632	636	643	647	644	639	637	643	651	657	660	660	660	660	660	660	659	660	660	657	652	647	643	639	638	640	642	641	641	644	646	645	642	641	642	643	642	640	640	640	640	640	641	641	640	640	641	642	642	643	643	642	641	641	642	643	644	643	643	646	647	648	646	647	646	646	647	648	648	649	650	650	650	652	653	655	655	655	655	657	659	660	659	658	658	659	660	660	661	661	661	662	662	662	661	662	662	663	664	663	664	664	664	665	665	666	666	667	668	668	670	670	670	671	672	673	674	677	679	680	684	686	688	691	693	694	692	691	691	694	697	699	705	712	720	724	727	732	739	748	753	755	755	757	756	755	752	753	752	754	759	763	763	763	765	766	767	767	767	768	769	769	768	767	767	767	765	762	759	759	761	763	763	762	762	762	763	760	758	756	756	756	754	753	755	756	759	758	756	752	751	752	752	752	752	753	754	757	764	783	0	0	0	0	0	0	0	0	0	0	0	0	0	0	0	0	0	0	0	0	0	0	0	0	0	0	0	0	0	0	0	0	0	0	0	0	0	0	0	0	0	0	0	0	0	0	0	0
0	1513	1520	1544	1565	1538	1543	1550	1559	1556	1545	1545	1553	1570	1573	1591	1599	1588	1561	1554	1589	0	0	0	0	0	0	1055	1055	1052	1058	1063	1063	1062	1062	1066	1072	1082	1079	1078	1077	1078	1071	1074	1079	1091	1096	1093	1092	1092	1097	1097	1107	1109	1112	1112	1114	1113	1113	1113	1118	1121	1127	1131	1131	1132	1132	1136	1131	1130	1136	1140	1141	1143	1150	1154	1155	1154	1159	1162	1160	1157	1156	1161	1167	1171	1173	1171	1174	1174	1177	1173	1176	1177	1180	1179	1183	1190	1189	1190	1195	1197	1201	1199	1206	1201	1199	1200	1205	1211	1216	1218	1219	1220	1221	1226	1230	1230	1233	1240	1247	1251	1245	1244	1243	1245	1247	1251	1253	1256	1257	1261	1264	1266	1267	1270	1273	1276	1280	1282	1284	1285	1287	1289	1291	1295	1298	1298	1300	1304	1307	1310	1312	1315	1319	1322	1325	1326	1328	1329	1332	1336	1339	1341	1344	1347	1350	1352	1354	1356	1360	1363	1367	1372	1378	1383	1388	1401	0	0	1909	1925	0	892	876	865	860	857	856	853	847	835	827	823	821	820	821	822	821	807	726	686	671	659	653	649	647	644	644	643	643	640	639	638	638	635	633	631	631	629	628	626	624	622	621	620	619	617	617	618	619	616	615	614	614	611	611	612	613	614	614	615	613	612	612	613	613	614	615	614	613	613	615	617	620	622	625	626	627	629	632	633	633	633	633	635	640	645	644	639	638	642	651	658	661	661	662	0	662	661	661	660	661	660	655	649	644	640	639	639	640	640	641	644	645	646	643	643	644	644	644	643	643	642	641	641	641	642	640	640	641	643	644	643	644	644	644	642	643	643	644	643	644	646	647	648	647	647	647	647	648	648	650	650	652	651	651	651	654	655	657	657	656	658	658	660	659	659	659	660	660	661	661	660	661	663	663	664	663	662	663	663	665	664	665	664	666	665	665	665	666	667	668	668	670	670	671	671	672	671	674	675	679	680	683	685	688	691	692	692	691	691	693	695	698	698	703	710	719	723	727	731	738	748	753	755	756	757	756	755	753	752	751	754	758	763	764	766	766	768	768	767	767	768	769	768	767	766	767	768	766	762	760	761	762	763	762	760	760	761	761	759	759	758	757	756	754	753	754	754	755	755	753	751	751	750	750	748	749	748	749	748	749	750	761	0	0	0	0	0	0	0	0	0	0	0	0	0	0	0	0	0	0	0	0	0	0	0	0	0	0	0	0	0	0	0	0	0	0	0	0	0	0	0	0	0	0	0	0	0	0	0
0	1518	1520	1547	1548	1566	1547	1556	1557	1556	1537	1537	1548	1561	1576	1591	1603	1573	1561	1548	1570	0	0	0	0	0	1017	1045	1049	1054	1059	1064	1063	1057	1061	1068	1073	1073	1069	1067	1071	1074	1070	1072	1076	1090	1091	1094	1090	1093	1094	1098	1101	1107	1106	1108	1110	1109	1112	1112	1117	1119	1123	1128	1130	1129	1126	1127	1128	1128	1131	1136	1135	1138	1147	1152	1154	1152	1154	1157	1160	1160	1156	1157	1156	1166	1168	1171	1171	1172	1172	1172	1174	1179	1182	1181	1181	1186	1188	1193	1197	1199	1197	1199	1199	1200	1200	1204	1206	1210	1213	1213	1215	1217	1220	1226	1227	1227	1228	1235	1241	1246	1241	1241	1241	1244	1245	1250	1252	1255	1256	1258	1262	1264	1266	1267	1269	1273	1277	1281	1283	1284	1286	1288	1290	1292	1294	1297	1299	1303	1305	1308	1310	1314	1318	1321	1322	1323	1326	1328	1331	1335	1337	1340	1342	1346	1348	1351	1352	1354	1358	1362	1366	1370	1376	1382	1390	1405	0	0	1901	0	900	882	868	861	856	855	854	850	837	826	820	818	818	818	818	819	819	802	713	681	665	655	648	646	642	641	640	640	640	637	635	634	634	630	630	629	629	626	624	624	621	618	617	616	616	615	615	615	615	614	613	611	611	608	609	610	610	610	610	611	610	609	608	609	608	610	610	610	610	611	611	612	614	618	622	624	625	628	631	633	632	631	630	633	637	642	640	637	636	641	648	655	658	659	659	0	0	658	658	658	660	659	655	648	642	639	636	636	635	636	637	641	642	643	642	642	641	641	642	642	642	640	639	638	639	639	636	636	636	639	639	639	639	640	640	640	641	641	640	639	639	641	643	645	645	645	645	644	646	646	648	649	650	650	650	650	650	652	654	656	653	655	655	657	656	657	658	659	659	659	658	658	659	660	661	662	661	661	661	662	662	662	661	662	662	662	662	662	663	664	664	665	666	667	669	669	670	670	672	673	676	677	679	681	683	686	686	686	686	688	690	692	693	695	698	704	712	717	722	727	735	743	748	751	753	754	753	752	751	750	750	750	753	759	761	763	764	766	766	766	766	766	766	766	765	765	766	767	764	761	758	758	759	759	758	757	757	759	759	757	755	754	753	752	751	750	750	749	749	748	747	745	746	745	744	741	742	740	742	737	735	729	729	0	0	0	0	0	0	0	0	0	0	0	0	0	0	0	0	0	0	0	0	0	0	0	0	0	0	0	0	0	0	0	0	0	0	0	0	0	0	0	0	0	0	0	0	0	0	0
0	1528	1519	1536	1573	1557	1570	1570	1558	1550	1549	1550	1552	1570	1575	1585	1586	1588	1577	1580	1544	0	0	0	0	0	1036	1049	1061	1058	1057	1056	1062	1060	1063	1072	1073	1071	1063	1064	1068	1072	1076	1078	1083	1090	1093	1096	1092	1090	1090	1097	1102	1105	1108	1113	1118	1119	1118	1111	1116	1116	1121	1127	1132	1133	1128	1128	1129	1127	1128	1134	1139	1143	1153	1153	1159	1150	1156	1156	1163	1162	1159	1158	1154	1160	1163	1168	1168	1169	1168	1172	1174	1177	1179	1179	1180	1182	1187	1192	1195	1199	1199	1199	1199	1205	1210	1213	1213	1213	1215	1214	1214	1215	1217	1222	1225	1227	1229	1233	1241	1246	1242	1241	1242	1245	1248	1251	1253	1255	1257	1259	1263	1264	1267	1269	1272	1274	1278	1281	1284	1286	1289	1289	1291	1292	1295	1298	1302	1306	1307	1309	1310	1314	1317	1321	1323	1324	1327	1329	1333	1337	1339	1342	1345	1348	1350	1352	1354	1356	1360	1364	1368	1373	1379	1386	1396	1423	0	1898	1895	0	892	877	866	860	856	855	852	842	830	824	821	819	818	818	819	820	818	788	704	675	663	656	650	648	645	643	641	640	639	637	636	635	634	630	630	628	628	623	622	622	621	619	618	616	617	615	616	615	616	614	613	612	613	611	611	610	610	610	610	611	610	610	609	609	610	611	611	611	611	610	609	610	613	616	620	624	626	629	632	633	633	632	633	634	636	640	639	636	636	640	649	656	659	660	659	0	0	660	660	660	661	659	655	648	643	640	638	636	635	637	641	643	643	644	643	642	641	640	642	642	643	641	640	639	639	639	638	637	638	639	640	640	640	641	641	640	640	641	643	643	641	641	643	645	646	646	646	645	646	647	648	648	650	650	651	651	651	652	655	656	655	657	657	658	658	659	660	659	660	659	658	659	660	662	662	662	663	663	664	664	663	663	664	663	664	662	663	663	665	665	666	666	667	668	669	670	670	672	673	673	675	677	679	680	682	685	687	686	688	689	690	691	693	694	698	705	712	717	721	726	732	741	748	752	753	754	753	753	753	753	753	752	754	759	763	766	768	769	768	767	766	767	768	768	766	767	767	767	764	761	759	758	759	759	758	757	757	759	759	758	756	755	754	752	751	751	750	748	747	746	745	743	743	741	740	737	736	734	733	726	721	711	0	0	0	0	0	0	0	0	0	0	0	0	0	0	0	0	0	0	0	0	0	0	0	0	0	0	0	0	0	0	0	0	0	0	0	0	0	0	0	0	0	0	0	0	0	0	0	0
0	1530	1529	1551	1565	1560	1564	1574	1564	1551	1562	1566	1554	1559	1563	1570	1573	1584	1593	1553	0	0	0	0	0	0	1055	1056	1063	1061	1051	1054	1066	1066	1065	1069	1071	1067	1065	1069	1075	1076	1078	1082	1082	1088	1089	1093	1088	1090	1093	1101	1105	1106	1108	1114	1120	1117	1116	1111	1117	1117	1121	1124	1131	1132	1128	1126	1129	1131	1130	1128	1136	1138	1147	1143	1150	1147	1153	1151	1157	1160	1160	1161	1156	1159	1157	1163	1165	1164	1161	1167	1173	1178	1178	1183	1183	1184	1185	1190	1193	1198	1194	1196	1193	1202	1207	1212	1212	1212	1214	1214	1217	1214	1217	1218	1223	1224	1226	1229	1235	1243	1237	1237	1238	1243	1245	1248	1250	1253	1257	1258	1260	1261	1264	1266	1269	1273	1276	1278	1280	1283	1286	1287	1289	1290	1293	1296	1300	1303	1304	1307	1309	1313	1314	1317	1319	1322	1324	1328	1332	1336	1338	1341	1344	1346	1349	1351	1354	1356	1359	1363	1367	1372	1377	1385	1400	0	0	1917	0	903	881	867	861	856	856	851	841	830	824	821	819	818	817	816	816	817	812	763	690	667	657	653	649	645	641	639	638	637	636	634	633	631	630	627	627	625	623	619	618	618	617	616	614	613	612	613	614	613	612	610	610	610	609	609	609	609	607	607	607	609	609	610	609	609	609	609	608	0	606	606	607	608	610	612	615	619	623	627	630	630	630	630	631	631	633	636	635	633	633	638	646	654	657	657	655	0	656	657	658	658	659	656	653	646	642	638	637	635	634	635	636	639	639	642	641	640	638	638	638	639	639	638	637	637	638	637	635	634	635	635	636	637	637	638	637	637	637	639	640	640	638	639	640	643	642	641	640	641	642	643	644	645	646	647	648	650	649	650	652	654	655	657	658	657	656	656	656	656	656	657	656	657	659	660	659	659	660	661	661	660	659	660	662	663	662	660	660	661	662	662	663	664	664	665	667	669	669	670	669	670	671	673	675	675	678	680	683	684	686	686	687	687	688	690	694	702	707	712	715	721	728	736	745	749	751	750	749	750	751	751	751	749	750	754	760	764	766	767	767	766	765	765	766	767	766	767	765	764	760	758	757	756	756	755	755	755	756	757	756	753	750	750	750	750	749	747	746	744	741	740	739	738	737	734	731	726	722	718	712	701	683	654	0	0	0	0	0	0	0	0	0	0	0	0	0	0	0	0	0	0	0	0	0	0	0	0	0	0	0	0	0	0	0	0	0	0	0	0	0	0	0	0	0	0	0	0	0	0	0	0
0	1522	1543	1543	1556	1562	1564	1562	1557	1554	1566	1568	1563	1554	1554	1569	1580	1578	1572	1564	0	0	0	0	0	1054	1037	1055	1067	1061	1057	1059	1069	1074	1075	1075	1071	1067	1068	1072	1077	1079	1083	1084	1086	1090	1095	1095	1090	1091	1093	1098	1103	1101	1102	1107	1115	1115	1113	1111	1120	1118	1122	1120	1124	1128	1127	1129	1132	1135	1139	1135	1140	1145	1149	1146	1149	1147	1149	1147	1155	1155	1156	1156	1157	1158	1158	1163	1168	1168	1167	1168	1171	1175	1179	1184	1191	1190	1192	1192	1197	1199	1197	1198	1200	1203	1209	1211	1211	1211	1213	1214	1218	1218	1222	1221	1227	1225	1228	1233	1240	1246	1239	1239	1241	1244	1247	1248	1251	1255	1259	1259	1261	1262	1265	1266	1271	1275	1278	1279	1280	1282	1285	1287	1289	1291	1294	1297	1300	1304	1306	1309	1311	1314	1314	1318	1321	1324	1326	1328	1333	1336	1339	1341	1344	1346	1349	1350	1354	1357	1361	1364	1369	1374	1380	1389	0	0	1903	1930	0	893	878	865	861	857	856	844	832	825	822	821	820	820	819	819	818	819	805	732	684	664	656	651	650	645	641	638	637	635	634	632	631	630	629	625	624	622	621	618	617	616	616	615	613	612	612	612	612	611	611	608	609	609	608	609	608	609	608	608	609	609	609	609	609	610	611	611	610	609	608	607	609	610	611	612	613	616	620	625	629	629	630	630	632	632	633	635	635	633	633	638	646	654	658	658	657	656	657	657	658	658	659	658	655	648	644	640	638	635	635	635	635	636	638	642	643	642	640	640	640	640	639	639	638	638	639	639	638	636	637	636	638	638	638	638	637	637	638	639	641	642	641	640	641	642	642	640	639	641	642	644	644	644	645	646	648	650	650	651	653	654	657	659	660	658	658	658	657	656	657	658	659	660	662	662	662	660	661	662	663	661	661	661	663	663	663	662	663	662	663	663	665	664	665	666	668	670	670	669	669	669	670	672	675	676	678	679	683	685	687	687	687	688	688	689	694	702	709	712	716	721	726	735	745	750	751	749	749	750	751	752	751	751	752	755	762	767	769	769	769	768	766	767	766	767	766	767	765	762	759	757	757	757	758	757	755	754	755	756	755	753	749	749	748	749	748	746	744	741	738	737	737	735	732	727	720	714	705	698	0	0	0	0	0	0	0	0	0	0	0	0	0	0	0	0	0	0	0	0	0	0	0	0	0	0	0	0	0	0	0	0	0	0	0	0	0	0	0	0	0	0	0	0	0	0	0	0	0	0	0	0
0	1523	1525	1541	1551	1565	1559	1554	1549	1540	1547	1564	1562	1550	1550	1561	1579	1573	1558	0	0	0	0	0	0	0	1032	1047	1054	1059	1058	1060	1062	1064	1076	1072	1064	1056	1059	1068	1076	1081	1079	1078	1081	1092	1094	1094	1091	1093	1094	1094	1097	1099	1104	1104	1107	1105	1109	1109	1117	1118	1122	1119	1122	1124	1124	1124	1130	1133	1140	1133	1135	1136	1142	1143	1145	1149	1149	1148	1149	1150	1150	1150	1150	1149	1154	1164	1175	1175	1172	1168	1174	1179	1183	1185	1191	1192	1191	1190	1194	1196	1195	1197	1197	1198	1202	1206	1206	1206	1208	1211	1216	1219	1225	1225	1228	1228	1230	1235	1238	1243	1238	1239	1239	1241	1243	1245	1250	1253	1255	1256	1259	1261	1263	1265	1270	1273	1276	1276	1277	1280	1282	1286	1288	1290	1292	1295	1298	1302	1304	1308	1310	1312	1312	1315	1319	1322	1324	1326	1330	1332	1335	1338	1341	1343	1345	1347	1352	1355	1361	1364	1368	1372	1380	1391	0	1864	1899	0	0	882	869	860	858	854	844	831	823	821	819	818	817	819	820	821	819	817	0	706	673	659	652	647	646	643	639	634	632	631	630	628	626	623	621	619	618	617	616	615	613	611	610	610	609	609	609	608	607	606	606	604	604	605	605	605	605	606	604	604	604	605	605	605	604	604	604	606	606	605	606	607	609	610	609	609	608	611	614	619	624	627	629	629	629	630	631	632	632	633	633	637	644	653	656	655	0	0	0	0	655	655	656	657	654	648	642	638	635	633	632	632	631	630	632	637	640	641	639	639	637	638	637	637	636	636	637	637	636	634	634	634	634	635	634	634	633	634	635	635	636	637	637	638	638	639	639	638	637	639	640	642	643	643	644	644	645	647	647	648	649	651	653	656	656	655	654	654	654	654	654	656	657	657	658	658	659	659	659	659	659	659	659	659	659	660	660	660	660	660	661	661	662	661	662	663	665	666	666	665	666	667	668	670	673	674	675	676	678	681	682	683	683	683	684	686	690	697	705	708	711	716	722	730	740	746	747	747	748	748	748	748	748	748	749	752	759	764	766	767	767	767	764	765	762	764	764	764	762	758	755	753	754	755	756	756	754	752	752	753	751	748	744	743	743	744	744	741	737	734	732	730	729	726	720	710	699	0	0	0	0	0	0	0	0	0	0	0	0	0	0	0	0	0	0	0	0	0	0	0	0	0	0	0	0	0	0	0	0	0	0	0	0	0	0	0	0	0	0	0	0	0	0	0	0	0	0	0	0	0	0	0
0	1530	1536	1550	1560	1563	1558	1551	1544	1549	1550	1566	1564	1552	1550	1559	1578	1578	1568	1575	0	0	0	0	0	1037	1035	1042	1048	1057	1059	1057	1052	1059	1073	1071	1062	1056	1057	1066	1072	1079	1076	1077	1079	1086	1088	1092	1094	1094	1093	1096	1098	1099	1100	1100	1101	1103	1112	1114	1115	1114	1120	1121	1119	1116	1118	1121	1127	1130	1136	1137	1136	1137	1139	1145	1143	1148	1148	1150	1151	1150	1150	1149	1152	1149	1154	1161	1171	1174	1172	1170	1172	1174	1176	1180	1189	1193	1193	1189	1190	1192	1198	1199	1201	1199	1205	1205	1205	1204	1206	1210	1211	1220	1225	1227	1229	1231	1235	1238	1242	1243	1241	1241	1242	1243	1245	1247	1251	1253	1255	1257	1261	1262	1265	1268	1271	1273	1276	1277	1278	1279	1283	1286	1288	1291	1293	1296	1299	1302	1305	1309	1311	1312	1313	1316	1319	1323	1325	1326	1329	1333	1335	1338	1341	1343	1346	1348	1352	1356	1361	1365	1371	1375	1385	1397	0	1863	1898	0	900	880	867	862	858	846	832	824	822	821	820	819	820	821	825	827	828	816	750	686	668	658	651	646	645	643	640	635	632	630	628	626	624	622	620	616	616	615	616	615	613	611	610	609	609	608	609	608	607	605	606	605	605	604	606	605	604	603	603	603	604	604	604	602	602	601	603	604	606	604	606	607	611	611	610	609	609	610	613	618	622	625	628	630	631	631	631	633	634	635	635	637	644	651	657	656	657	0	657	0	656	656	658	658	655	651	645	641	637	634	633	633	633	632	634	637	641	641	640	639	638	637	638	637	637	637	638	638	637	635	635	635	634	635	635	635	634	634	634	636	637	639	638	639	639	640	640	640	639	640	643	644	644	645	645	645	646	647	648	648	649	651	652	654	654	654	654	655	655	655	656	656	658	659	660	660	661	660	661	660	660	660	660	660	660	660	661	662	662	662	662	663	663	662	663	664	666	665	666	666	668	668	669	670	673	674	676	677	678	681	682	682	682	683	686	687	690	696	705	709	712	715	721	729	738	744	746	748	750	750	750	750	750	749	749	752	761	766	770	770	769	767	764	764	763	764	764	764	762	758	754	753	754	755	756	756	755	752	751	751	750	747	744	742	741	742	741	739	735	732	728	724	719	712	700	0	0	0	0	0	0	0	0	0	0	0	0	0	0	0	0	0	0	0	0	0	0	0	0	0	0	0	0	0	0	0	0	0	0	0	0	0	0	0	0	0	0	0	0	0	0	0	0	0	0	0	0	0	0	0	0	0
0	1545	1545	1553	1562	1565	1550	1552	1555	1549	1558	1570	1562	1559	1556	1552	1568	1569	1577	1576	0	0	0	0	0	0	1040	1043	1048	1053	1052	1048	1051	1055	1062	1061	1060	1055	1060	1066	1074	1077	1074	1074	1077	1083	1087	1090	1093	1093	1095	1097	1100	1101	1102	1099	1099	1101	1113	1116	1113	1112	1120	1122	1121	1115	1114	1115	1122	1125	1132	1133	1133	1134	1137	1143	1141	1145	1147	1147	1145	1146	1150	1152	1154	1157	1155	1157	1166	1169	1167	1167	1171	1174	1173	1177	1182	1188	1186	1186	1184	1187	1192	1195	1199	1200	1203	1203	1203	1204	1203	1205	1208	1219	1221	1224	1224	1230	1233	1234	1239	1240	1238	1238	1239	1240	1242	1246	1249	1251	1253	1256	1259	1261	1263	1266	1268	1270	1272	1274	1275	1276	1280	1284	1288	1290	1292	1296	1299	1302	1305	1308	1311	1312	1314	1315	1317	1320	1321	1324	1326	1332	1335	1338	1340	1342	1344	1347	1351	1353	1357	1362	1370	1376	1385	1420	0	0	1940	0	888	872	862	858	850	833	824	820	820	819	819	819	821	825	829	831	830	802	709	674	660	654	647	643	640	638	634	632	629	627	624	624	621	619	617	615	614	614	613	612	609	607	607	607	607	606	607	606	603	602	603	602	601	601	602	602	601	601	600	599	600	601	602	601	600	599	600	601	603	601	601	603	606	608	608	608	609	610	610	613	616	620	623	626	629	630	630	632	633	634	633	634	640	648	655	656	656	0	0	656	654	655	655	655	652	648	643	639	635	632	630	630	631	631	631	634	636	637	637	637	636	635	634	633	633	633	634	635	633	633	631	631	631	632	632	632	632	632	631	632	633	635	635	637	636	638	638	638	637	639	641	643	642	643	642	643	644	645	646	647	648	648	649	651	651	651	650	651	652	654	654	654	655	656	657	656	657	658	659	659	658	658	657	657	657	659	659	659	658	660	661	662	662	661	661	662	662	662	664	665	665	665	666	668	669	671	672	674	674	676	678	680	680	680	683	685	687	691	699	704	707	710	717	725	733	740	744	746	748	748	748	747	748	747	746	749	756	763	766	767	766	765	762	761	761	763	763	761	759	756	752	751	751	752	752	752	752	750	749	748	745	741	739	737	736	736	734	730	725	720	714	706	695	678	636	626	0	0	529	0	0	0	0	0	0	0	0	0	0	0	0	0	0	0	0	0	0	0	0	0	0	0	0	0	0	0	0	0	0	0	0	0	0	0	0	0	0	0	0	0	0	0	0	0	0	0	0	0	0	0	0	0
0	1553	1549	1555	1557	1555	1545	1545	1543	1553	1563	1561	1598	1601	1585	1560	1564	1564	1569	0	0	0	0	0	0	0	1045	1044	1051	1056	1060	1056	1059	1055	1058	1059	1065	1066	1063	1074	1074	1079	1080	1082	1083	1084	1088	1090	1091	1093	1096	1099	1101	1099	1101	1102	1104	1106	1112	1118	1120	1117	1118	1120	1119	1117	1115	1119	1121	1126	1130	1134	1134	1136	1139	1143	1143	1149	1148	1147	1145	1151	1156	1160	1161	1164	1160	1160	1160	1164	1162	1168	1168	1173	1172	1180	1181	1186	1185	1189	1187	1186	1190	1199	1204	1205	1206	1204	1208	1209	1208	1207	1210	1220	1222	1224	1222	1226	1231	1236	1243	1243	1237	1238	1239	1242	1245	1248	1249	1251	1254	1259	1261	1263	1265	1266	1266	1269	1273	1276	1278	1279	1282	1286	1289	1292	1294	1297	1300	1303	1306	1309	1312	1313	1315	1316	1317	1320	1323	1326	1329	1334	1337	1340	1342	1343	1346	1349	1352	1353	1356	1363	1370	1378	1386	0	1886	1913	0	0	883	870	863	855	841	828	823	822	822	821	822	823	828	832	836	837	829	772	689	668	658	652	645	642	638	634	631	630	628	626	623	622	621	620	619	617	615	614	612	611	610	609	609	608	607	606	607	607	605	602	603	602	602	601	600	600	601	599	598	597	599	599	601	601	602	601	602	602	604	603	603	603	604	607	609	611	612	613	613	615	617	619	620	623	627	630	633	635	635	634	634	634	639	646	655	658	659	0	0	656	656	656	656	654	652	649	646	642	638	634	632	632	633	632	632	632	634	636	637	637	636	635	634	633	633	634	635	635	633	633	633	633	632	633	634	633	634	633	634	633	635	636	637	636	637	637	638	638	638	639	641	642	642	642	643	644	645	645	647	648	650	649	651	652	652	652	652	653	653	654	654	654	656	658	659	658	658	658	659	660	661	660	659	658	658	659	660	660	659	660	661	662	662	661	661	662	663	663	665	666	666	665	666	666	668	669	673	674	676	676	679	680	681	682	685	686	687	690	697	704	707	710	716	724	733	740	744	745	746	748	749	748	747	747	746	749	757	764	768	768	768	766	763	761	762	763	763	761	758	757	754	754	752	753	752	751	751	751	749	746	741	739	737	735	733	730	727	722	714	706	693	680	657	0	583	558	0	0	0	0	0	0	0	0	0	0	0	0	0	0	0	0	0	0	0	0	0	0	0	0	0	0	0	0	0	0	0	0	0	0	0	0	0	0	0	0	0	0	0	0	0	0	0	0	0	0	0	0	0	0	0	0
0	1555	1554	1554	1554	1546	1547	1533	1541	1550	1553	1582	1567	1562	1588	1576	1567	1566	1555	1563	0	0	0	0	0	0	1051	1050	1055	1055	1055	1055	1061	1062	1061	1062	1064	1064	1061	1067	1077	1083	1082	1081	1081	1086	1090	1089	1087	1087	1095	1096	1099	1097	1099	1102	1103	1104	1106	1113	1115	1116	1114	1113	1116	1117	1118	1120	1119	1124	1129	1133	1134	1136	1137	1141	1143	1146	1142	1139	1142	1151	1156	1160	1156	1162	1161	1166	1164	1160	1158	1164	1168	1172	1173	1178	1177	1181	1185	1192	1191	1191	1192	1200	1202	1201	1203	1206	1211	1210	1208	1208	1215	1222	1223	1221	1221	1225	1229	1234	1241	1241	1237	1237	1237	1240	1244	1247	1248	1250	1252	1257	1260	1262	1263	1263	1264	1267	1272	1275	1277	1279	1281	1285	1287	1291	1292	1296	1299	1302	1304	1307	1308	1312	1313	1315	1316	1319	1322	1325	1327	1331	1335	1338	1340	1341	1343	1346	1349	1352	1355	1362	1367	1376	1385	0	1884	1906	0	898	877	865	855	842	831	824	821	819	820	821	823	826	832	835	837	835	818	741	676	661	651	645	638	634	630	627	625	624	623	622	620	619	616	615	614	614	613	610	607	607	606	605	604	604	603	604	603	601	600	599	600	601	600	598	597	598	598	597	594	594	596	597	598	599	599	599	598	599	600	601	602	602	602	603	605	607	609	610	611	613	615	617	618	619	622	627	633	634	634	632	632	632	638	645	652	655	656	656	654	0	652	653	653	652	650	648	644	640	635	632	630	629	630	629	629	627	629	632	634	634	633	633	633	632	631	632	632	632	631	631	630	631	631	633	633	632	631	631	632	631	632	633	633	633	633	632	634	636	637	638	639	640	639	639	640	641	641	642	644	646	648	648	649	651	651	652	651	652	652	654	653	652	653	656	657	656	656	657	657	658	659	658	657	656	657	657	659	658	657	657	657	658	658	658	658	660	660	662	662	664	663	663	664	664	666	668	670	671	672	674	676	678	678	680	681	683	684	688	694	700	703	707	711	719	728	737	740	741	743	745	745	744	744	744	744	746	753	761	764	765	765	765	764	761	760	760	760	758	754	753	750	750	748	749	750	748	748	747	745	741	736	732	730	727	724	717	710	699	690	668	661	0	0	592	0	0	0	0	0	0	0	0	0	0	0	0	0	0	0	0	0	0	0	0	0	0	0	0	0	0	0	0	0	0	0	0	0	0	0	0	0	0	0	0	0	0	0	0	0	0	0	0	0	0	0	0	0	0	0	0	0	0
0	1547	1553	1559	1547	1541	1544	1561	1543	1557	1567	1578	1565	1556	1560	1570	1575	1572	1589	1607	0	0	0	0	0	1045	1058	1056	1055	1049	1052	1053	1059	1065	1072	1073	1076	1071	1067	1071	1078	1088	1086	1084	1080	1084	1085	1086	1083	1084	1087	1096	1102	1097	1094	1096	1102	1107	1111	1115	1113	1114	1116	1121	1119	1121	1120	1125	1121	1123	1125	1132	1134	1136	1132	1135	1140	1145	1146	1143	1147	1154	1159	1159	1158	1166	1166	1172	1166	1160	1158	1166	1169	1171	1173	1178	1181	1186	1190	1196	1193	1194	1196	1201	1199	1196	1200	1206	1212	1211	1211	1211	1217	1223	1223	1220	1222	1225	1231	1236	1241	1239	1237	1238	1239	1242	1246	1249	1249	1251	1253	1257	1259	1262	1263	1263	1265	1267	1272	1275	1279	1281	1283	1285	1286	1290	1293	1297	1300	1302	1305	1307	1308	1311	1313	1316	1317	1320	1324	1327	1330	1333	1335	1338	1340	1342	1345	1347	1351	1354	1358	1363	1369	1379	1405	0	1918	1912	0	896	881	865	847	834	827	823	822	820	822	825	830	833	836	836	838	836	806	0	672	657	648	642	636	631	628	625	623	621	621	621	619	617	615	614	612	612	612	609	607	606	606	604	601	602	602	603	601	600	600	599	600	599	600	598	597	596	595	595	594	595	596	597	597	597	598	598	598	600	600	600	602	605	605	605	605	606	607	608	611	613	616	618	619	618	619	624	632	635	636	633	633	632	639	645	653	654	656	655	0	653	654	0	655	654	652	650	646	643	637	635	633	632	630	629	629	628	630	631	634	634	633	634	634	634	634	634	634	633	632	632	632	631	632	633	633	633	633	633	634	634	634	634	633	633	634	634	636	638	640	640	641	639	639	639	642	642	642	642	643	645	647	648	650	651	653	653	654	654	654	655	654	653	655	657	659	659	659	659	659	660	661	660	660	658	658	659	660	660	660	659	659	658	658	657	658	660	661	662	662	664	665	665	665	666	668	668	671	672	675	675	677	677	677	679	680	682	683	687	694	701	704	707	710	717	727	736	739	741	743	744	745	744	744	744	745	747	753	761	766	767	767	766	765	763	762	761	761	759	754	751	749	749	747	748	748	746	746	745	743	738	731	727	723	718	711	701	688	677	656	0	0	0	0	0	0	0	0	0	0	0	0	0	0	0	0	0	0	0	0	0	0	0	0	0	0	0	0	0	0	0	0	0	0	0	0	0	0	0	0	0	0	0	0	0	0	0	0	0	0	0	0	0	0	0	0	0	0	0	0	0	0	0
0	1525	1555	1564	1545	1548	1549	1544	1556	1560	1568	1576	1584	1571	1564	1570	1572	1583	1613	1616	0	0	0	0	0	1059	1056	1054	1052	1049	1052	1051	1057	1063	1074	1076	1071	1068	1068	1075	1080	1086	1083	1079	1077	1082	1084	1083	1082	1080	1083	1087	1094	1091	1089	1091	1098	1104	1110	1109	1103	1108	1116	1121	1120	1116	1117	1121	1123	1124	1124	1126	1128	1129	1131	1137	1140	1144	1142	1138	1142	1147	1152	1153	1153	1157	1163	1167	1164	1158	1161	1160	1163	1163	1172	1178	1183	1184	1188	1191	1190	1193	1197	1198	1194	1190	1193	1196	1204	1205	1206	1208	1216	1220	1222	1218	1225	1225	1236	1237	1240	1235	1235	1236	1237	1240	1243	1246	1247	1249	1252	1255	1257	1259	1261	1261	1264	1266	1269	1272	1275	1279	1281	1283	1284	1288	1291	1295	1298	1299	1301	1304	1306	1310	1311	1315	1316	1320	1322	1326	1328	1331	1332	1335	1336	1337	1341	1345	1350	1354	1358	1363	1371	1384	0	1908	1934	0	0	894	876	854	833	825	821	821	821	822	825	828	833	835	836	835	834	829	0	696	662	648	640	634	629	625	622	620	618	617	616	616	613	611	608	608	605	606	605	605	603	603	602	602	599	600	599	599	598	597	597	597	596	594	595	595	593	591	590	591	591	592	592	593	593	595	595	596	596	598	596	596	597	600	602	602	602	602	604	605	607	609	612	614	618	617	617	620	626	631	633	630	629	628	634	642	650	651	652	652	0	652	0	652	651	652	651	650	645	642	635	633	630	630	628	627	627	627	627	630	632	632	631	632	633	633	633	632	631	631	630	631	630	629	628	629	631	631	631	631	631	632	631	631	630	631	631	632	632	636	638	638	637	636	637	637	639	640	639	639	641	643	642	644	644	646	647	650	651	652	653	653	651	650	652	655	657	657	658	659	658	659	658	658	657	657	657	658	659	658	658	658	658	657	656	655	656	657	657	659	659	662	662	663	662	665	667	667	668	668	671	673	674	675	673	675	676	678	680	684	690	697	700	703	705	712	722	731	736	738	740	739	740	739	740	740	740	742	749	757	763	766	766	764	763	762	762	759	758	755	750	746	744	743	741	740	741	741	741	739	735	727	717	710	704	696	686	670	659	0	0	0	0	0	0	0	0	0	0	0	0	0	0	0	0	0	0	0	0	0	0	0	0	0	0	0	0	0	0	0	0	0	0	0	0	0	0	0	0	0	0	0	0	0	0	0	0	0	0	0	0	0	0	0	0	0	0	0	0	0	0	0	0	0
0	1534	1538	1547	1556	1531	1541	1551	1535	1566	1566	1570	1581	1580	1579	1574	1572	1596	1611	0	0	0	0	0	1105	1065	1062	1056	1053	1052	1058	1057	1062	1066	1072	1069	1065	1067	1072	1079	1083	1084	1081	1080	1081	1083	1084	1084	1084	1081	1082	1085	1090	1089	1092	1093	1100	1102	1103	1105	1104	1110	1115	1121	1122	1117	1116	1118	1126	1127	1125	1121	1120	1125	1130	1137	1144	1145	1143	1138	1139	1141	1147	1150	1152	1155	1160	1161	1159	1158	1164	1162	1162	1163	1175	1182	1186	1185	1184	1187	1187	1191	1194	1193	1192	1190	1193	1194	1197	1201	1205	1210	1213	1217	1218	1220	1227	1231	1237	1238	1240	1235	1234	1235	1237	1241	1244	1246	1246	1249	1252	1254	1256	1258	1262	1263	1265	1267	1269	1273	1277	1280	1281	1284	1285	1289	1293	1296	1298	1298	1302	1305	1308	1311	1313	1316	1318	1320	1323	1327	1330	1332	1333	1335	1336	1339	1344	1349	1353	1355	1360	1365	1376	1391	0	0	1929	0	0	897	867	842	829	824	822	823	824	829	833	836	838	838	838	835	833	822	755	679	656	644	638	633	629	626	623	621	619	618	617	616	613	612	609	609	607	607	608	608	607	608	606	606	604	603	603	602	602	601	601	599	597	595	597	597	596	591	591	592	593	592	591	591	591	592	594	596	596	597	595	596	597	599	601	602	603	605	606	607	609	610	613	615	618	619	619	621	626	630	633	631	628	628	634	643	652	653	654	652	654	654	0	0	653	653	653	651	647	644	639	635	632	632	630	629	628	629	630	630	632	633	634	633	634	633	634	633	633	632	632	632	633	632	630	629	630	631	631	631	632	633	633	632	631	632	634	633	634	636	637	636	636	636	637	638	641	640	640	640	642	642	642	642	643	645	646	649	651	651	652	652	652	652	653	654	655	656	658	659	659	660	659	659	658	657	658	658	659	659	659	658	659	658	658	657	657	657	658	658	660	661	662	662	661	664	666	667	668	669	673	673	674	674	674	674	675	677	680	684	690	696	699	702	704	709	720	731	737	739	739	738	738	739	740	741	742	743	749	757	764	767	766	765	763	763	763	760	757	752	749	744	742	740	739	737	738	738	737	733	724	710	696	686	678	668	636	619	0	0	0	0	0	0	0	0	0	0	0	0	0	0	0	0	0	0	0	0	0	0	0	0	0	0	0	0	0	0	0	0	0	0	0	0	0	0	0	0	0	0	0	0	0	0	0	0	0	0	0	0	0	0	0	0	0	0	0	0	0	0	0	0	0	0
0	1530	1524	1536	1547	1539	1533	1543	1541	1535	1541	1572	1571	1572	1574	1565	1575	1582	0	0	0	0	0	0	0	1056	1056	1052	1048	1050	1057	1058	1065	1067	1066	1063	1061	1066	1070	1075	1077	1077	1075	1076	1080	1082	1081	1080	1082	1086	1088	1090	1090	1091	1093	1089	1095	1093	1098	1099	1104	1108	1110	1113	1118	1116	1116	1116	1122	1125	1124	1122	1120	1120	1127	1136	1146	1144	1138	1137	1138	1139	1142	1146	1149	1148	1152	1154	1157	1156	1161	1156	1159	1160	1174	1182	1184	1183	1180	1181	1183	1192	1196	1195	1190	1187	1191	1192	1196	1197	1202	1205	1212	1217	1218	1220	1227	1233	1239	1238	1238	1233	1232	1234	1236	1240	1242	1244	1244	1247	1250	1253	1254	1256	1259	1262	1263	1265	1268	1272	1275	1278	1279	1281	1283	1287	1291	1295	1296	1297	1299	1303	1306	1309	1310	1314	1315	1319	1320	1324	1327	1329	1331	1332	1334	1337	1341	1346	1349	1353	1356	1364	1375	1397	0	1870	1936	0	930	883	848	830	822	821	821	824	827	833	836	839	839	838	835	833	827	0	0	658	645	638	634	628	623	622	620	619	617	617	617	619	619	619	614	614	612	614	613	613	611	612	611	611	608	606	605	605	604	603	602	601	599	597	597	598	596	592	591	592	593	592	591	590	590	592	593	594	591	591	590	592	592	593	595	598	601	603	605	606	608	609	612	613	615	617	619	621	624	627	629	628	626	627	631	641	648	651	652	651	0	0	0	651	650	652	652	651	645	641	636	634	630	629	627	627	626	626	626	627	628	630	630	630	630	630	630	629	630	630	630	630	630	630	629	629	630	629	628	628	629	631	632	631	629	630	631	631	631	632	632	633	633	634	634	637	638	637	635	636	639	640	639	640	640	642	643	646	648	649	650	650	649	649	650	651	651	653	655	657	656	656	655	656	655	655	655	656	657	656	655	655	656	656	655	656	656	656	656	656	656	658	659	659	659	660	662	664	665	666	668	670	670	671	670	672	673	675	678	682	687	692	695	697	699	704	715	727	734	736	736	735	737	737	738	738	739	740	745	753	761	763	762	761	761	762	760	755	750	745	742	739	735	734	731	729	727	727	723	713	698	677	658	642	0	0	0	0	0	0	0	0	0	0	0	0	0	0	0	0	0	0	0	0	0	0	0	0	0	0	0	0	0	0	0	0	0	0	0	0	0	0	0	0	0	0	0	0	0	0	0	0	0	0	0	0	0	0	0	0	0	0	0	0	0	0	0	0	0	0	0	0	0	0
0	1524	1528	1531	1533	1535	1530	1535	1544	1542	1543	1557	1560	1561	1564	1572	1563	1556	1540	0	0	0	0	0	0	1034	1046	1050	1048	1047	1052	1052	1061	1062	1063	1065	1067	1072	1071	1072	1075	1074	1073	1074	1082	1086	1081	1080	1084	1092	1093	1095	1096	1095	1095	1092	1097	1095	1100	1101	1105	1108	1108	1111	1118	1120	1122	1120	1124	1122	1122	1123	1127	1129	1129	1134	1144	1143	1140	1139	1141	1144	1145	1148	1151	1151	1153	1153	1159	1163	1166	1165	1163	1168	1174	1179	1178	1179	1181	1186	1185	1192	1195	1196	1193	1194	1199	1200	1202	1200	1202	1208	1213	1219	1217	1222	1227	1235	1234	1235	1238	1234	1234	1235	1238	1242	1243	1244	1245	1249	1252	1254	1255	1256	1260	1263	1265	1267	1269	1273	1276	1279	1280	1281	1283	1286	1292	1295	1297	1298	1300	1303	1306	1309	1311	1315	1317	1319	1321	1324	1328	1330	1333	1334	1336	1339	1343	1348	1350	1353	1356	1362	1372	0	0	1910	1944	0	938	862	839	828	824	824	826	830	834	838	840	841	841	838	834	832	822	0	671	650	639	634	632	628	626	626	626	626	627	630	635	642	645	644	639	635	632	630	629	625	622	620	619	617	614	612	612	610	609	607	606	605	603	601	602	602	600	597	596	597	596	595	593	593	594	594	595	594	592	591	592	594	594	594	596	598	601	602	605	606	608	610	613	615	616	618	620	623	626	628	630	628	628	629	634	641	649	653	654	653	652	651	653	653	652	653	653	652	647	642	638	636	632	630	628	626	626	626	627	626	628	630	631	631	629	630	629	629	630	631	632	631	629	629	630	631	631	629	628	628	630	633	634	633	632	631	633	633	633	633	633	633	634	635	635	637	638	637	637	637	640	640	641	641	642	642	644	647	648	649	650	650	650	650	651	653	653	653	655	657	657	655	655	655	657	656	656	657	657	657	655	656	656	656	657	657	658	659	659	659	658	658	659	659	659	660	663	665	666	668	670	671	670	669	670	672	674	676	679	682	688	692	697	698	700	703	713	725	734	736	737	736	738	739	740	741	741	742	744	752	761	764	762	760	760	760	757	751	743	739	736	733	729	726	722	719	715	713	699	681	657	0	0	0	0	0	0	0	0	0	0	0	0	0	0	0	0	0	0	0	0	0	0	0	0	0	0	0	0	0	0	0	0	0	0	0	0	0	0	0	0	0	0	0	0	0	0	0	0	0	0	0	0	0	0	0	0	0	0	0	0	0	0	0	0	0	0	0	0	0	0	0	0	0
0	1536	1543	1543	1548	1548	1536	1533	1536	1549	1544	1553	1558	1563	1567	1567	1569	1547	1564	0	0	0	0	0	0	1020	1039	1044	1042	1046	1047	1049	1051	1059	1059	1063	1069	1074	1074	1068	1072	1070	1070	1069	1077	1083	1082	1080	1083	1090	1090	1093	1096	1096	1095	1094	1099	1101	1104	1101	1100	1103	1107	1110	1117	1119	1124	1124	1123	1121	1120	1123	1131	1131	1132	1129	1138	1140	1143	1142	1142	1143	1145	1148	1151	1152	1154	1156	1161	1164	1167	1162	1161	1164	1172	1175	1171	1174	1181	1186	1185	1191	1195	1200	1200	1202	1201	1203	1202	1202	1202	1204	1210	1215	1216	1219	1225	1231	1235	1236	1240	1232	1234	1235	1238	1240	1241	1243	1244	1248	1250	1252	1252	1254	1257	1262	1265	1267	1269	1270	1272	1275	1278	1280	1281	1285	1289	1293	1294	1297	1298	1302	1304	1308	1310	1313	1315	1318	1320	1322	1325	1328	1331	1333	1333	1335	1338	1344	1347	1352	1355	1363	1372	0	1902	1930	0	0	884	842	830	825	824	825	829	834	836	838	840	840	840	835	832	827	803	0	659	643	634	630	629	630	634	638	641	644	647	653	662	670	676	681	683	674	657	644	637	631	623	619	616	616	613	613	610	608	606	605	604	603	601	600	599	599	597	596	596	597	594	593	592	594	595	596	596	594	592	592	594	594	592	591	593	596	597	597	599	603	605	608	610	613	614	616	617	620	623	625	627	626	625	626	631	638	645	649	651	650	0	648	649	650	649	649	650	650	646	641	636	634	632	629	626	625	624	625	624	624	625	627	626	626	626	627	627	627	627	628	629	628	626	626	626	627	627	626	624	627	628	632	632	631	630	631	631	632	631	631	631	632	633	634	634	635	636	636	635	634	636	637	639	640	640	641	642	644	645	646	648	649	648	648	650	651	651	650	651	652	653	652	651	653	654	654	653	655	655	655	654	654	654	655	654	656	656	658	657	657	656	656	656	658	659	660	662	663	665	665	667	668	667	666	668	670	673	674	676	679	684	689	694	695	697	700	709	720	729	732	734	734	735	737	737	737	736	737	740	748	757	760	759	756	756	754	749	742	733	728	724	721	715	708	698	691	684	0	0	0	0	0	0	0	0	0	0	0	0	0	0	0	0	0	0	0	0	0	0	0	0	0	0	0	0	0	0	0	0	0	0	0	0	0	0	0	0	0	0	0	0	0	0	0	0	0	0	0	0	0	0	0	0	0	0	0	0	0	0	0	0	0	0	0	0	0	0	0	0	0	0	0	0	0
0	1546	1543	1557	1554	1552	1540	1549	1546	1555	1557	1555	1557	1562	1569	1569	1565	1581	0	0	0	0	0	0	1081	1041	1043	1046	1045	1050	1051	1048	1052	1057	1056	1057	1064	1072	1069	1068	1073	1073	1072	1069	1076	1085	1086	1084	1083	1084	1086	1090	1097	1098	1098	1097	1101	1105	1107	1105	1101	1101	1105	1109	1116	1116	1122	1123	1124	1121	1121	1127	1134	1135	1135	1129	1135	1140	1144	1142	1141	1144	1146	1152	1152	1159	1161	1166	1166	1166	1166	1162	1163	1165	1173	1171	1170	1170	1180	1186	1186	1189	1194	1202	1204	1206	1204	1202	1201	1203	1206	1212	1214	1215	1215	1219	1228	1230	1232	1234	1239	1234	1236	1236	1238	1239	1242	1243	1246	1248	1250	1253	1255	1257	1261	1265	1269	1270	1271	1270	1273	1276	1280	1283	1284	1287	1289	1292	1294	1296	1299	1303	1305	1309	1310	1314	1316	1319	1320	1322	1325	1328	1331	1334	1334	1336	1340	1345	1349	1354	1358	1366	0	0	1891	1947	0	900	854	835	829	827	829	832	836	838	839	840	841	840	839	834	832	824	0	686	656	642	634	631	635	644	654	661	665	669	674	680	685	690	697	707	715	697	666	646	638	631	624	618	616	616	614	612	609	607	605	604	603	602	602	601	599	598	598	597	598	597	595	593	592	594	596	597	598	596	597	597	598	597	594	594	595	596	596	596	598	601	604	607	611	614	616	616	618	620	624	626	628	627	627	626	631	638	646	650	652	651	650	649	651	650	650	648	650	650	648	642	639	635	635	632	629	626	625	625	625	624	626	626	626	626	627	626	627	627	629	628	629	629	627	626	626	627	626	625	625	627	628	631	631	632	632	634	634	632	630	629	630	632	634	635	635	636	637	636	636	635	639	639	640	640	641	641	643	645	646	647	648	650	651	651	651	652	651	649	650	650	653	652	653	653	656	656	655	655	656	657	656	656	656	656	657	656	657	658	659	659	658	656	657	658	660	660	663	664	666	666	668	669	670	669	670	671	673	674	674	676	682	688	694	695	697	699	708	719	728	732	734	734	735	737	737	736	735	734	737	746	755	759	757	754	752	748	740	731	720	713	707	701	687	674	0	0	0	0	0	0	0	0	0	0	0	0	0	0	0	0	0	0	0	0	0	0	0	0	0	0	0	0	0	0	0	0	0	0	0	0	0	0	0	0	0	0	0	0	0	0	0	0	0	0	0	0	0	0	0	0	0	0	0	0	0	0	0	0	0	0	0	0	0	0	0	0	0	0	0	0	0	0	0	0
0	1539	1547	1552	1553	1538	1539	1552	1547	1552	1560	1565	1565	1562	1563	1561	1557	1580	1604	0	0	0	0	1101	1040	1043	1044	1042	1044	1050	1048	1045	1049	1057	1053	1055	1058	1066	1063	1065	1068	1069	1069	1070	1077	1082	1083	1082	1078	1079	1082	1087	1097	1098	1098	1096	1101	1105	1106	1102	1099	1100	1103	1107	1111	1112	1113	1116	1117	1122	1122	1125	1130	1131	1131	1126	1130	1137	1142	1140	1139	1140	1144	1150	1150	1156	1160	1166	1167	1161	1158	1156	1165	1168	1176	1171	1175	1175	1186	1188	1187	1185	1190	1192	1196	1196	1195	1195	1199	1205	1206	1212	1213	1218	1216	1220	1224	1226	1231	1234	1237	1232	1233	1234	1236	1238	1241	1242	1245	1248	1249	1251	1253	1256	1261	1264	1266	1267	1268	1269	1271	1273	1277	1281	1284	1286	1287	1290	1293	1295	1297	1300	1304	1307	1308	1312	1315	1317	1318	1322	1324	1326	1328	1331	1333	1334	1338	1342	1347	1353	1359	1370	0	1874	1928	0	0	859	840	829	826	827	831	835	837	838	838	839	838	837	835	830	827	806	727	669	647	637	634	637	647	660	670	676	679	684	687	690	692	695	700	710	716	695	661	642	632	625	620	615	614	612	611	609	606	603	600	599	598	600	599	599	597	596	594	594	594	593	591	590	590	592	594	595	594	594	594	595	595	594	592	593	593	594	594	595	595	597	599	603	608	611	613	614	616	618	622	624	626	626	624	624	628	636	643	647	649	649	649	0	648	648	648	648	649	649	647	642	638	635	632	630	627	625	623	623	623	622	623	623	623	624	625	625	626	627	627	626	625	626	626	626	624	624	623	625	624	625	626	629	629	630	630	631	631	630	627	626	627	629	631	632	633	634	634	634	633	633	635	637	638	638	639	639	639	641	644	646	647	648	650	650	649	648	647	646	648	649	650	649	650	650	653	653	653	653	654	654	653	653	653	653	653	654	655	656	656	657	655	655	655	657	657	658	659	661	663	664	666	668	670	669	668	668	669	670	671	672	677	683	688	689	691	694	703	715	723	728	730	730	731	732	732	731	730	728	731	737	745	748	747	743	739	733	722	707	0	0	0	0	0	0	0	0	0	0	0	0	0	0	0	0	0	0	0	0	0	0	0	0	0	0	0	0	0	0	0	0	0	0	0	0	0	0	0	0	0	0	0	0	0	0	0	0	0	0	0	0	0	0	0	0	0	0	0	0	0	0	0	0	0	0	0	0	0	0	0	0	0	0	0	0	0	0	0	0	0	0	0	0	0	0
0	1547	1541	1556	1529	1532	1535	1550	1555	1554	1565	1572	1571	1564	1568	1556	1555	1564	1602	0	0	0	0	0	1032	1034	1035	1037	1048	1051	1048	1047	1047	1051	1051	1055	1059	1060	1056	1059	1062	1065	1067	1075	1083	1087	1084	1084	1079	1080	1081	1087	1094	1099	1099	1096	1099	1099	1105	1106	1104	1102	1102	1108	1111	1114	1114	1118	1121	1127	1124	1127	1130	1135	1133	1129	1132	1140	1144	1141	1141	1142	1149	1152	1150	1151	1154	1163	1165	1162	1163	1163	1173	1171	1181	1179	1183	1181	1189	1192	1190	1187	1190	1192	1198	1197	1198	1192	1199	1202	1208	1214	1219	1225	1221	1222	1223	1226	1229	1236	1236	1233	1232	1234	1236	1239	1241	1242	1245	1248	1251	1252	1255	1257	1262	1264	1265	1265	1268	1270	1273	1275	1279	1281	1284	1286	1288	1290	1293	1296	1298	1301	1304	1308	1310	1312	1315	1317	1318	1322	1326	1328	1330	1332	1335	1337	1341	1345	1350	1356	1363	0	0	1914	1907	0	868	844	835	830	830	833	837	840	839	841	840	840	838	834	830	826	824	0	698	659	644	639	642	651	664	675	681	683	685	688	691	693	695	697	701	710	717	693	659	641	631	623	618	613	613	610	609	605	603	602	599	598	597	599	600	600	597	596	594	595	594	594	592	592	591	593	594	595	593	591	593	595	596	595	595	596	597	597	597	597	597	597	598	599	604	608	614	615	619	620	623	626	629	628	626	626	629	635	642	646	649	649	650	650	650	650	650	650	651	650	648	644	641	638	634	631	629	628	626	624	624	623	623	623	623	625	626	626	626	627	628	627	626	627	627	627	626	626	627	628	628	627	627	628	629	631	632	632	631	630	629	629	629	630	632	634	634	634	634	633	635	636	638	638	639	638	639	639	641	642	645	648	648	646	647	648	649	649	648	649	650	651	652	650	651	651	654	655	655	655	655	653	653	653	653	654	654	655	655	656	656	656	656	656	656	656	657	657	659	660	663	664	666	669	670	671	669	668	669	670	671	671	675	681	686	687	688	691	700	712	720	726	728	729	728	728	729	727	726	723	724	731	737	736	730	721	712	0	0	0	0	0	0	0	0	0	0	0	0	0	0	0	0	0	0	0	0	0	0	0	0	0	0	0	0	0	0	0	0	0	0	0	0	0	0	0	0	0	0	0	0	0	0	0	0	0	0	0	0	0	0	0	0	0	0	0	0	0	0	0	0	0	0	0	0	0	0	0	0	0	0	0	0	0	0	0	0	0	0	0	0	0	0	0	0	0
0	1543	1548	1532	1529	1535	1544	1551	1550	1561	1563	1567	1559	1564	1566	1560	1550	1556	1556	0	0	0	0	0	1030	1035	1033	1039	1043	1045	1047	1048	1050	1047	1049	1054	1057	1058	1057	1062	1064	1067	1067	1072	1080	1083	1083	1086	1083	1079	1075	1081	1090	1098	1099	1101	1102	1099	1100	1102	1102	1102	1101	1109	1110	1117	1114	1120	1124	1127	1123	1122	1125	1131	1134	1133	1134	1136	1139	1137	1136	1136	1142	1147	1145	1144	1148	1155	1158	1158	1161	1164	1170	1171	1178	1181	1182	1182	1186	1189	1189	1187	1189	1189	1198	1196	1197	1192	1199	1202	1204	1208	1213	1220	1219	1218	1220	1222	1230	1236	1235	1232	1231	1232	1234	1237	1239	1240	1243	1246	1249	1250	1252	1254	1257	1259	1261	1263	1266	1269	1271	1273	1276	1279	1282	1284	1286	1288	1291	1294	1295	1298	1302	1305	1308	1310	1313	1316	1318	1322	1325	1327	1329	1330	1334	1336	1341	1345	1351	1359	1368	0	1828	1879	0	881	849	834	830	829	831	836	839	840	837	838	838	839	835	827	822	819	815	757	675	649	641	642	651	662	672	678	681	682	684	688	690	691	692	696	700	711	714	690	653	636	624	619	614	611	609	606	605	602	600	599	598	597	594	594	594	595	593	591	590	591	592	591	590	589	589	590	591	591	589	587	589	591	592	591	591	593	594	595	595	596	595	594	595	595	598	602	608	613	618	619	622	625	628	626	623	623	626	632	638	643	646	647	648	649	647	0	647	650	649	649	647	644	640	637	632	630	627	626	624	623	623	622	621	621	621	623	624	625	625	626	624	624	624	625	625	626	626	625	625	627	627	626	625	626	628	628	628	627	627	628	629	628	628	628	629	631	631	631	630	631	632	633	633	635	635	636	636	637	638	639	641	644	645	644	643	643	646	645	645	645	648	648	648	648	649	650	651	652	652	652	652	651	650	650	650	651	651	653	653	653	653	653	653	654	653	654	654	656	656	657	658	661	661	664	665	667	666	665	665	667	668	669	670	676	679	681	682	687	695	706	713	718	719	720	719	718	717	714	710	705	703	706	708	0	0	0	0	0	0	0	0	0	0	0	0	0	0	0	0	0	0	0	0	0	0	0	0	0	0	0	0	0	0	0	0	0	0	0	0	0	0	0	0	0	0	0	0	0	0	0	0	0	0	0	0	0	0	0	0	0	0	0	0	0	0	0	0	0	0	0	0	0	0	0	0	0	0	0	0	0	0	0	0	0	0	0	0	0	0	0	0	0	0	0	0	0
0	1535	1535	1532	1538	1547	1550	1546	1549	1551	1560	1550	1544	1559	1572	1567	1553	1534	1512	0	0	0	0	0	1058	1043	1040	1041	1044	1049	1050	1053	1051	1048	1049	1052	1056	1057	1056	1059	1067	1074	1070	1068	1076	1080	1086	1090	1090	1085	1082	1087	1090	1099	1098	1101	1097	1097	1098	1105	1103	1104	1105	1116	1115	1120	1118	1121	1121	1124	1124	1128	1128	1130	1132	1135	1137	1137	1140	1141	1140	1141	1145	1151	1148	1149	1153	1158	1155	1155	1158	1164	1168	1171	1173	1177	1176	1180	1183	1189	1186	1186	1190	1196	1202	1202	1200	1197	1199	1201	1204	1207	1209	1212	1214	1214	1219	1220	1229	1235	1235	1231	1231	1232	1234	1237	1239	1242	1243	1246	1248	1251	1253	1255	1258	1260	1263	1265	1268	1271	1273	1276	1279	1281	1283	1286	1288	1290	1291	1295	1297	1300	1302	1305	1308	1312	1314	1316	1318	1322	1324	1327	1331	1332	1336	1338	1344	1348	1356	1365	1397	0	1868	1915	0	866	843	833	831	832	836	841	841	840	838	839	838	837	830	821	817	817	804	721	663	652	650	654	664	673	680	680	682	683	686	688	690	693	693	695	700	711	714	687	652	634	624	618	613	609	608	604	603	600	599	598	598	598	596	594	592	593	591	590	590	590	591	591	592	591	591	591	591	588	587	586	590	592	592	591	592	594	594	594	595	597	597	597	596	596	596	599	605	613	620	623	625	626	629	627	625	624	627	632	640	644	646	647	648	649	648	648	648	649	649	649	648	645	641	638	634	631	629	627	626	625	624	623	623	622	621	622	622	624	625	626	625	625	625	625	625	626	628	627	627	627	628	627	627	627	629	629	630	628	628	628	630	629	629	629	631	632	632	632	632	632	633	633	634	634	636	636	637	637	639	640	641	642	645	645	644	643	646	646	647	647	649	649	650	649	650	651	651	651	651	652	652	652	652	653	651	653	653	654	653	653	653	653	654	654	655	656	657	658	658	658	659	660	660	662	663	665	666	665	665	665	666	666	668	673	676	678	679	683	689	698	706	710	710	710	707	703	697	690	0	0	0	0	0	0	0	0	0	0	0	0	0	0	0	0	0	0	0	0	0	0	0	0	0	0	0	0	0	0	0	0	0	0	0	0	0	0	0	0	0	0	0	0	0	0	0	0	0	0	0	0	0	0	0	0	0	0	0	0	0	0	0	0	0	0	0	0	0	0	0	0	0	0	0	0	0	0	0	0	0	0	0	0	0	0	0	0	0	0	0	0	0	0	0	0	0	0
0	1526	1530	1535	1548	1552	1552	1546	1549	1544	1554	1545	1551	1569	1574	1557	1555	1537	1534	0	0	0	0	0	1051	1041	1040	1041	1042	1047	1050	1052	1055	1055	1053	1047	1047	1054	1057	1064	1071	1075	1071	1067	1072	1075	1084	1089	1091	1084	1084	1086	1090	1095	1095	1099	1094	1094	1093	1098	1098	1106	1107	1118	1112	1118	1114	1116	1115	1116	1120	1122	1125	1126	1130	1133	1137	1134	1136	1138	1140	1143	1146	1150	1150	1153	1157	1158	1154	1152	1151	1155	1164	1171	1171	1171	1174	1178	1182	1184	1182	1178	1182	1189	1192	1191	1191	1196	1199	1204	1204	1206	1204	1205	1208	1213	1220	1219	1225	1229	1233	1230	1229	1230	1233	1234	1237	1240	1242	1245	1247	1249	1251	1254	1257	1260	1262	1263	1265	1269	1271	1275	1276	1279	1280	1284	1286	1288	1289	1293	1295	1298	1301	1304	1305	1308	1310	1314	1315	1319	1322	1325	1328	1330	1334	1336	1342	1348	1358	1370	0	0	0	0	876	849	835	831	830	833	838	840	838	836	834	835	833	829	820	814	812	812	0	691	655	655	656	663	669	675	678	678	680	682	684	687	688	690	691	694	698	710	711	684	649	629	618	612	609	606	604	601	599	597	595	594	595	596	594	591	589	590	589	588	588	588	588	587	587	587	587	588	587	586	585	585	586	588	587	588	589	590	589	589	592	596	595	596	596	598	596	598	600	607	615	622	624	626	627	625	623	621	624	629	636	641	643	645	645	0	0	645	645	646	646	647	646	645	640	637	633	630	627	626	624	622	622	621	621	620	620	619	620	621	623	622	621	622	623	622	622	624	625	625	624	624	625	624	625	626	628	627	626	625	626	627	627	627	627	628	628	629	630	631	631	630	630	630	631	632	634	636	636	635	637	638	639	639	641	643	643	643	644	645	645	645	646	647	647	647	647	649	648	649	647	649	650	651	652	652	650	649	648	649	649	649	650	651	653	654	653	655	656	657	657	658	658	658	658	659	660	661	662	662	662	660	660	660	661	666	667	667	667	668	672	680	689	691	689	683	0	0	0	0	0	0	0	0	0	0	0	0	0	0	0	0	0	0	0	0	0	0	0	0	0	0	0	0	0	0	0	0	0	0	0	0	0	0	0	0	0	0	0	0	0	0	0	0	0	0	0	0	0	0	0	0	0	0	0	0	0	0	0	0	0	0	0	0	0	0	0	0	0	0	0	0	0	0	0	0	0	0	0	0	0	0	0	0	0	0	0	0	0	0	0	0	0	0	0	0	0	0
0	1526	1534	1534	1540	1549	1554	1553	1557	1553	1545	1551	1562	1567	1568	1561	1550	1572	1595	0	0	0	0	0	1029	1039	1039	1041	1044	1051	1054	1049	1054	1060	1060	1052	1052	1059	1059	1064	1068	1074	1073	1074	1076	1077	1081	1083	1086	1083	1087	1087	1087	1092	1095	1098	1091	1093	1092	1098	1100	1107	1108	1116	1113	1118	1114	1114	1114	1117	1120	1124	1127	1127	1127	1129	1132	1134	1138	1142	1146	1151	1151	1152	1151	1156	1158	1157	1154	1156	1155	1159	1164	1171	1173	1172	1174	1179	1187	1191	1187	1182	1183	1189	1190	1194	1195	1202	1201	1205	1205	1208	1206	1206	1207	1213	1220	1223	1226	1231	1233	1228	1230	1231	1235	1235	1238	1240	1244	1247	1248	1251	1253	1254	1258	1260	1263	1264	1266	1271	1273	1276	1278	1280	1282	1285	1287	1289	1290	1294	1298	1302	1303	1305	1306	1309	1311	1314	1315	1320	1322	1325	1328	1331	1335	1338	1343	1351	1363	0	0	1880	1964	842	859	843	835	834	835	838	841	841	837	834	834	836	830	821	813	812	812	810	753	669	658	661	666	670	674	677	680	680	682	683	685	685	687	689	691	694	700	709	711	680	646	626	617	611	607	604	603	600	597	596	595	595	595	594	593	590	588	588	588	589	588	587	586	586	586	585	585	585	586	584	584	584	586	587	588	589	591	592	590	590	593	598	598	598	598	601	601	602	602	605	611	618	624	626	628	627	625	623	625	629	637	642	645	647	648	647	647	646	646	646	647	648	648	646	642	638	634	630	629	627	625	624	623	623	622	621	621	619	620	620	622	623	623	624	624	623	622	623	625	625	625	625	626	626	628	628	629	628	627	626	626	627	627	628	629	630	631	630	632	633	633	631	631	631	633	634	636	638	638	637	639	641	641	640	641	644	645	647	647	648	648	648	648	647	648	649	648	648	648	648	648	648	650	651	651	651	650	650	649	648	648	648	650	652	654	654	654	655	656	657	658	659	659	659	660	660	660	661	663	662	662	660	658	656	655	655	654	651	646	642	642	644	0	0	0	0	0	0	0	0	0	0	0	0	0	0	0	0	0	0	0	0	0	0	0	0	0	0	0	0	0	0	0	0	0	0	0	0	0	0	0	0	0	0	0	0	0	0	0	0	0	0	0	0	0	0	0	0	0	0	0	0	0	0	0	0	0	0	0	0	0	0	0	0	0	0	0	0	0	0	0	0	0	0	0	0	0	0	0	0	0	0	0	0	0	0	0	0	0	0	0	0	0	0	0	0	0	0
0	1521	1528	1528	1530	1548	1569	1565	1563	1557	1560	1561	1560	1556	1570	1558	1558	1570	1606	0	0	0	0	0	1040	1038	1042	1040	1042	1044	1050	1044	1052	1057	1058	1051	1054	1062	1065	1067	1068	1071	1071	1074	1075	1077	1078	1079	1082	1082	1086	1086	1087	1093	1098	1102	1096	1095	1094	1094	1097	1103	1104	1112	1111	1117	1114	1114	1114	1114	1118	1118	1124	1124	1128	1127	1130	1130	1132	1134	1141	1148	1149	1146	1147	1152	1158	1157	1157	1155	1159	1158	1163	1168	1171	1170	1173	1178	1186	1188	1189	1184	1184	1185	1185	1189	1193	1200	1200	1202	1202	1207	1208	1207	1206	1211	1220	1222	1224	1227	1229	1224	1228	1230	1233	1234	1236	1239	1242	1245	1246	1249	1251	1252	1254	1258	1261	1263	1264	1268	1271	1273	1275	1277	1280	1282	1285	1288	1290	1292	1295	1298	1301	1303	1305	1308	1310	1312	1315	1318	1321	1322	1324	1327	1332	1337	1343	1352	1364	0	0	1869	1979	0	847	837	833	834	836	839	839	837	833	832	831	830	821	813	809	809	808	800	722	660	656	661	666	670	671	674	676	678	679	682	683	684	684	687	689	693	699	710	708	675	641	622	612	607	603	602	600	598	594	593	592	592	591	590	587	586	585	586	584	584	583	584	583	581	580	579	582	581	582	582	581	581	582	584	586	586	587	588	589	590	591	592	592	593	595	598	601	603	603	602	606	612	618	624	627	626	623	621	623	627	634	640	644	646	645	0	645	0	645	645	645	646	645	644	639	635	632	630	628	625	623	621	620	620	618	617	618	617	618	617	618	620	620	623	622	622	621	621	622	622	623	623	624	624	625	626	626	626	625	625	624	626	626	626	627	628	629	629	631	631	631	629	629	631	632	633	633	634	634	636	637	639	638	639	639	642	644	645	646	647	646	645	644	644	645	648	647	646	646	648	647	647	647	648	647	647	647	647	645	644	645	646	649	650	652	652	651	651	652	654	654	656	655	656	654	655	655	657	658	658	656	654	651	646	637	628	618	611	0	0	0	0	0	0	0	0	0	0	0	0	0	0	0	0	0	0	0	0	0	0	0	0	0	0	0	0	0	0	0	0	0	0	0	0	0	0	0	0	0	0	0	0	0	0	0	0	0	0	0	0	0	0	0	0	0	0	0	0	0	0	0	0	0	0	0	0	0	0	0	0	0	0	0	0	0	0	0	0	0	0	0	0	0	0	0	0	0	0	0	0	0	0	0	0	0	0	0	0	0	0	0	0	0	0	0	0	0	0
0	1532	1528	1525	1528	1547	1563	1560	1550	1554	1567	1565	1558	1527	1539	1566	1560	1583	0	0	0	0	0	0	1043	1041	1040	1040	1042	1044	1048	1045	1051	1050	1054	1053	1066	1071	1071	1068	1066	1069	1066	1070	1069	1074	1075	1079	1084	1087	1089	1088	1087	1092	1097	1102	1099	1098	1099	1099	1096	1099	1100	1109	1111	1116	1113	1115	1115	1118	1119	1120	1124	1128	1132	1129	1129	1131	1135	1139	1143	1151	1151	1146	1146	1151	1159	1161	1161	1163	1163	1164	1164	1169	1168	1169	1169	1177	1183	1187	1187	1190	1189	1194	1189	1196	1198	1205	1199	1201	1204	1209	1212	1210	1210	1212	1220	1219	1223	1225	1229	1225	1229	1230	1235	1236	1238	1240	1242	1244	1247	1250	1252	1252	1254	1258	1262	1264	1266	1269	1272	1274	1276	1279	1281	1283	1287	1290	1292	1294	1296	1298	1301	1303	1306	1310	1314	1315	1318	1320	1322	1323	1325	1330	1335	1340	1347	1357	1369	0	0	0	0	854	842	836	835	837	839	839	837	835	833	832	830	825	817	811	810	810	811	798	705	660	660	664	670	672	673	675	677	678	679	681	683	684	685	687	690	692	700	710	708	675	640	621	612	606	602	601	600	598	595	593	593	592	592	589	587	586	585	584	582	583	582	583	581	580	578	578	581	580	581	579	581	580	582	583	585	585	586	588	590	591	591	589	588	590	593	596	600	605	608	607	607	611	617	624	629	627	625	622	624	627	635	643	647	647	647	647	647	646	647	647	647	646	645	643	640	636	632	630	629	627	624	623	621	619	618	616	617	617	619	618	618	619	621	624	624	624	623	622	622	623	624	624	625	625	625	626	627	627	626	626	626	627	628	628	628	629	631	630	631	632	632	631	630	632	634	635	635	635	635	636	638	639	640	640	642	643	645	645	646	647	647	647	646	645	647	649	649	647	648	648	648	647	648	648	647	648	649	650	649	647	649	649	651	650	652	652	653	651	651	653	653	654	653	654	653	652	651	650	651	651	648	643	636	624	603	575	551	537	518	0	0	0	0	0	0	0	0	0	0	0	0	0	0	0	0	0	0	0	0	0	0	0	0	0	0	0	0	0	0	0	0	0	0	0	0	0	0	0	0	0	0	0	0	0	0	0	0	0	0	0	0	0	0	0	0	0	0	0	0	0	0	0	0	0	0	0	0	0	0	0	0	0	0	0	0	0	0	0	0	0	0	0	0	0	0	0	0	0	0	0	0	0	0	0	0	0	0	0	0	0	0	0	0	0	0	0	0	0
0	1535	1529	1522	1524	1542	1551	1547	1543	1547	1560	1553	1556	1554	1556	1568	1578	1572	0	0	0	0	0	1029	1042	1040	1041	1037	1038	1036	1041	1040	1049	1046	1048	1050	1062	1071	1071	1068	1064	1064	1063	1066	1068	1072	1074	1077	1082	1087	1087	1089	1084	1088	1091	1100	1098	1100	1099	1100	1096	1096	1095	1104	1108	1113	1111	1113	1116	1118	1118	1118	1121	1125	1131	1128	1128	1130	1133	1136	1140	1145	1145	1142	1144	1149	1158	1160	1162	1158	1161	1163	1166	1167	1165	1168	1170	1175	1178	1176	1176	1177	1184	1189	1188	1190	1193	1201	1199	1198	1198	1205	1209	1209	1212	1214	1218	1216	1219	1224	1226	1225	1226	1228	1231	1233	1236	1238	1240	1242	1245	1248	1250	1252	1253	1256	1259	1262	1264	1266	1269	1272	1274	1277	1278	1280	1283	1288	1291	1293	1293	1296	1299	1303	1304	1308	1311	1314	1316	1318	1319	1321	1324	1329	1334	1340	1347	1357	0	0	0	1941	0	846	837	832	834	836	838	835	832	830	830	829	824	816	812	809	807	806	806	792	701	661	659	663	668	670	669	672	674	677	676	678	679	682	683	685	688	691	698	711	705	673	636	617	606	601	596	595	594	592	589	588	588	588	586	584	582	582	579	579	578	580	580	581	579	577	574	576	578	578	576	577	579	578	578	579	580	580	580	581	584	587	587	585	585	588	591	593	596	602	607	608	608	610	615	622	627	624	620	618	620	624	632	641	644	644	643	644	644	643	644	645	645	644	642	642	639	635	631	629	627	624	622	620	618	616	614	614	615	616	616	614	614	615	617	618	618	620	620	620	620	620	621	621	622	622	623	625	625	626	624	624	625	627	626	626	625	626	627	627	628	629	629	629	629	630	632	633	634	634	633	635	635	636	637	639	641	642	642	641	642	642	643	644	644	644	643	645	646	647	646	646	645	646	646	647	645	646	646	648	647	647	647	648	649	648	651	652	652	650	649	649	648	648	648	648	644	642	638	635	632	630	622	609	593	569	538	505	0	0	0	0	0	0	0	0	0	0	0	0	0	0	0	0	0	0	0	0	0	0	0	0	0	0	0	0	0	0	0	0	0	0	0	0	0	0	0	0	0	0	0	0	0	0	0	0	0	0	0	0	0	0	0	0	0	0	0	0	0	0	0	0	0	0	0	0	0	0	0	0	0	0	0	0	0	0	0	0	0	0	0	0	0	0	0	0	0	0	0	0	0	0	0	0	0	0	0	0	0	0	0	0	0	0	0	0	0	0	0	0
0	1542	1532	1519	1516	1538	1542	1541	1540	1544	1541	1557	1559	1551	1560	1560	1561	1549	0	0	0	0	0	1079	1040	1037	1035	1034	1042	1041	1043	1045	1053	1053	1052	1051	1060	1067	1069	1068	1062	1066	1067	1072	1072	1071	1072	1076	1083	1087	1086	1088	1081	1085	1087	1096	1096	1099	1099	1100	1099	1097	1096	1101	1107	1109	1108	1112	1114	1122	1123	1126	1126	1130	1130	1132	1133	1137	1136	1140	1141	1145	1145	1146	1150	1154	1159	1159	1161	1162	1164	1166	1168	1169	1169	1173	1173	1175	1177	1175	1174	1175	1186	1191	1190	1192	1190	1198	1197	1200	1201	1209	1211	1211	1214	1219	1219	1215	1220	1228	1227	1226	1227	1229	1231	1234	1236	1239	1242	1244	1246	1249	1252	1254	1255	1257	1259	1263	1266	1268	1272	1274	1277	1279	1280	1282	1284	1289	1291	1293	1294	1297	1300	1302	1305	1308	1313	1316	1317	1318	1320	1322	1326	1331	1336	1342	1349	1360	0	1809	0	0	863	845	837	834	835	838	838	834	831	830	831	825	818	812	812	809	808	806	806	793	703	665	663	665	670	671	671	673	674	677	678	679	681	683	684	685	688	692	700	711	704	670	635	616	606	600	596	595	595	593	590	588	588	587	585	583	582	582	579	578	578	580	580	579	578	577	576	577	578	577	576	576	579	578	577	577	579	578	579	580	584	586	586	586	587	590	592	594	597	602	607	609	610	613	616	622	628	625	622	618	620	624	633	641	645	646	646	646	646	645	646	646	646	644	644	643	641	637	635	632	630	626	623	620	619	617	615	615	617	618	617	614	615	616	619	618	618	619	621	622	622	622	622	623	624	624	625	626	627	626	625	626	627	629	628	628	627	626	626	627	629	629	630	629	629	629	632	633	636	636	637	637	636	636	638	640	643	642	642	642	643	643	644	644	645	645	645	646	645	646	646	646	645	646	646	648	647	646	645	646	647	648	649	648	649	648	651	651	652	649	648	646	645	642	641	639	635	625	614	603	594	584	566	543	523	0	0	0	0	0	0	0	0	0	0	0	0	0	0	0	0	0	0	0	0	0	0	0	0	0	0	0	0	0	0	0	0	0	0	0	0	0	0	0	0	0	0	0	0	0	0	0	0	0	0	0	0	0	0	0	0	0	0	0	0	0	0	0	0	0	0	0	0	0	0	0	0	0	0	0	0	0	0	0	0	0	0	0	0	0	0	0	0	0	0	0	0	0	0	0	0	0	0	0	0	0	0	0	0	0	0	0	0	0	0	0	0	0	0	0
0	1532	1530	1528	1525	1545	1551	1551	1546	1558	1545	1546	1554	1556	1553	1551	1540	1546	1557	1600	0	0	1151	1040	1036	1034	1035	1037	1045	1045	1046	1045	1052	1056	1056	1056	1057	1063	1064	1066	1063	1068	1072	1076	1075	1069	1071	1073	1076	1079	1082	1088	1085	1086	1089	1094	1095	1099	1096	1096	1096	1098	1099	1104	1107	1109	1109	1111	1114	1120	1126	1130	1130	1128	1126	1130	1131	1137	1135	1139	1139	1143	1145	1148	1152	1155	1157	1153	1153	1157	1160	1164	1166	1166	1166	1168	1171	1171	1175	1174	1177	1174	1182	1182	1185	1182	1186	1193	1194	1195	1196	1203	1204	1206	1211	1218	1216	1215	1219	1229	1224	1223	1224	1226	1229	1233	1235	1238	1240	1242	1243	1247	1249	1252	1253	1255	1258	1261	1265	1267	1271	1271	1275	1276	1278	1279	1282	1286	1289	1291	1292	1296	1299	1301	1302	1306	1309	1312	1313	1315	1317	1320	1324	1329	1333	1339	1348	1363	0	0	0	827	851	840	835	833	835	835	834	829	828	828	827	818	811	808	808	805	803	802	800	791	710	666	662	662	666	668	669	670	671	674	675	677	678	681	681	683	685	691	700	710	699	664	628	611	603	598	595	592	590	589	587	585	583	583	582	580	579	578	576	575	574	576	575	575	574	576	574	575	573	574	573	574	574	574	575	574	575	573	573	575	578	583	582	584	584	588	590	591	593	598	603	607	610	612	614	618	623	623	620	617	618	623	630	637	642	644	644	645	643	642	642	642	644	643	643	641	639	636	634	631	627	624	620	618	616	616	614	616	616	616	614	611	613	615	618	616	616	616	619	620	621	620	620	621	622	622	623	623	624	624	623	624	624	626	626	627	625	623	623	625	627	627	626	626	627	629	629	630	632	633	633	634	634	635	635	638	640	641	641	641	641	641	641	642	642	642	642	642	641	642	641	644	642	644	644	647	644	644	640	643	643	646	645	646	645	646	647	648	647	644	641	637	632	625	621	615	596	577	557	539	526	510	0	0	0	0	0	0	0	0	0	0	0	0	0	0	0	0	0	0	0	0	0	0	0	0	0	0	0	0	0	0	0	0	0	0	0	0	0	0	0	0	0	0	0	0	0	0	0	0	0	0	0	0	0	0	0	0	0	0	0	0	0	0	0	0	0	0	0	0	0	0	0	0	0	0	0	0	0	0	0	0	0	0	0	0	0	0	0	0	0	0	0	0	0	0	0	0	0	0	0	0	0	0	0	0	0	0	0	0	0	0	0	0	0	0	0	0	0	0
