4350	4350	4350	4406	4406	4350	4350	4296	4296	4243	4243	4243	4243	4243	4243	4243	4192	4243	4243	4243	4243	4243	4243	4243	4243	4243	4192	4243	4243	4296	4296	4296	4296	4243	4296	4243	4243	4243	4192	4243	4243	4243	4243	4243	4243	4243	4243	4296	4243	4243	4243	4192	4243	4296	4296	4296	4296	4296	4296	4296	4296	4296	4350	4296	4296	4296	4296	4296	4296	4296	4243	4296	4243	4243	4243	4192	4142	4142	4142	4142	4192	4142	4142	4142	4192	4296	4296	4296	4296	4296	4296	4296	4243	4243	4243	4243	4243	4192	4192	4192	4142	4192	4142	4142	4142	4142	4192	4192	4243	4243	4243	4243	4243	4243	4243	4243	4243	4192	4192	4142	4192	4142	4142	4142	4142	4142	0	0	0	0	0	0	0	0	0	0	0	0	0	0	0	0	0	0	0	0	0	0	0	0	0	0	0	0	0	0	0	0	0	0	0	0	0	0	0	0	0	0	0	0	0	0	0	0	0	0	0	0	0	0	0	0	0	0	0	0	0	0	0	0	0	850	848	845	845	845	845	848	845	845	848	852	852	852	0	0	0	0	0	0	0	0	0	0	860	858	856	852	856	858	856	854	848	848	0	0	0	841	0	0	0	0	0	0	0	0	0	0	0	0	0	0	0	0	0	0	0	843	848	848	850	852	854	856	856	858	860	865	867	869	871	869	869	867	862	860	856	856	854	852	852	845	841	837	835	831	831	829	825	821	821	817	817	854	852	852	850	848	848	845	845	843	843	841	841	839	839	837	837	835	835	835	833	833	833	833	833	833	833	831	831	831	831	831	831	831	831	831	831	831	829	827	827	827	829	827	827	827	827	827	829	829	827	827	827	827	827	827	827	827	823	821	819	821	821	819	821	821	821	821	821	821	823	823	827	827	829	829	831	831	833	831	835	835	829	833	829	829	829	827	827	829	829	831	835	837	839	841	843	845	845	848	854	852	854	856	858	860	858	858	865	865	865	865	865	860	860	858	858	854	852	852	852	850	850	848	845	843	843	835	835	835	865	865	865	867	865	862	860	860	860	858	858	858	858	858	858	858	858	858	858	865	865	850	848	848	850	850	850	848	845	843	843	841	3779	3779	3779	3779	3779	3779	3779	3738	3738	3738	3738	3738	3779	3779	3779	3779	3779	3779	3779	3779	3779	3779	3779	3779	3698	3738	3738	3738	3738	3738	3738	3738	3738	3738	3738	3738	3738	3738	3738	3779	3779	3779	3738	3738	3738	3738	3738	3698	3698	3698	3738	3738	3738	3738	3738	3698	0	0	0	0	0	0	0	0	0	0	0	0	0	0	0	0	6349	6235	6235	6349	6349	6468	6349	6235	0	0	0	0	0	0	0	0	0	0	0	5626	5626	5626	5719	5719	5719	5626	5626	5535	5535	5448	5364	5282	5364	5364	5448	5448	5364	5448	5448	5448	5364	5364	5282	5202	5125	5050	5050	5050	5050	5050	4977	4906	4906	4906	4906	4906	4906	4906	4906	4838	4838	4771	4706	4643	4643	4643	4706	4706	4706	4643	4706	4706	4643	4643	4706	4706	4643	4521	4463	4463	4463	4406	4406	4406	4406	4406	4406	4406	4350	4350	4243	4192	4243	4192	4192	4192	4192	4192	3998	3907	3907	3738	3698	3659	3659	3659	3621	3621	3621	3621	3621	3583	3583	3546	3510	3510	0	0	0	0	0	0	0	0
4350	4350	4350	4406	4406	4350	4350	4350	4296	4243	4243	4243	4243	4243	4243	4243	4192	4192	4243	4243	4243	4243	4243	4243	4243	4243	4192	4243	4243	4243	4243	4243	4243	4243	4243	4243	4243	4243	4192	4243	4243	4243	4296	4296	4296	4243	4296	4296	4296	4243	4243	4192	4243	4296	4243	4243	4296	4296	4296	4296	4296	4296	4350	4296	4296	4296	4296	4296	4296	4296	4243	4243	4192	4192	4243	4142	4142	4142	4142	4142	4192	4142	4142	4142	4142	4142	4296	4296	4296	4296	4296	4296	4243	4192	4243	4243	4192	4192	4192	4192	4192	4192	4142	4142	4142	4142	4192	4192	4243	4243	4243	4243	4243	4243	4243	4243	4243	4243	4192	4192	4192	4142	4142	4142	4142	4093	0	0	0	0	0	0	0	0	0	0	0	0	0	0	0	0	0	0	0	0	0	0	0	0	0	0	0	0	0	0	0	0	0	0	0	0	0	0	0	0	0	0	0	0	0	0	0	0	0	0	0	0	0	0	0	0	0	0	0	0	0	0	0	0	848	848	845	843	843	843	843	845	843	843	845	848	850	850	0	0	0	0	0	0	0	0	860	860	858	858	854	852	854	856	856	854	850	848	0	0	841	841	843	845	0	0	0	0	0	0	0	0	0	0	0	0	0	0	0	0	843	841	845	848	850	852	854	854	854	856	858	860	865	871	871	871	869	865	858	858	854	854	852	850	848	841	839	837	833	831	831	829	825	823	821	817	815	815	810	850	850	850	848	845	845	843	843	841	841	839	839	837	837	835	833	833	833	831	833	833	833	833	831	831	831	831	831	831	831	831	831	831	831	831	829	829	827	827	827	827	827	827	827	827	827	829	827	827	827	827	827	827	827	819	819	817	817	817	819	819	819	819	819	821	821	821	821	823	823	827	829	829	829	831	831	829	829	829	827	827	827	827	827	825	825	827	827	829	831	835	837	839	841	843	843	845	852	852	852	854	854	856	856	856	860	860	862	860	860	858	858	856	854	852	852	850	850	848	845	843	843	841	839	835	835	0	0	865	865	865	865	862	860	860	860	858	858	858	858	856	858	858	856	852	845	850	845	845	845	843	845	845	848	845	843	843	843	841	841	3779	3779	3779	3779	3738	3738	3738	3698	3738	3738	3738	3738	3779	3738	3779	3779	3779	3821	3779	3779	3779	3779	3738	3698	3698	3698	3738	3738	3738	3738	3738	3738	3738	3738	3738	3779	3738	3779	3779	3779	3779	3738	3738	3738	3738	3738	3698	3698	3698	3738	3738	3738	3738	3698	3698	0	0	0	0	0	0	0	0	0	0	0	0	0	0	0	0	0	6468	6468	6468	6468	6592	6468	0	0	0	0	0	0	0	0	0	0	0	0	0	5626	5626	5719	5719	5719	5719	5626	5535	5535	5364	5364	5282	5364	5364	5364	5364	5364	5364	5364	5364	5448	5448	5125	5125	5125	5050	5050	5050	5050	5050	4977	4977	4906	4977	4977	4977	4977	4977	4906	4838	4838	4771	4706	4706	4706	4643	4706	4706	4706	4706	4706	4706	4643	4643	4706	4643	4521	4463	4463	4463	4463	4406	4463	4406	4406	4406	4406	4406	4350	4350	4243	4243	4243	4192	4192	4192	4192	4142	4093	3864	3907	3738	3659	3659	3659	3659	3621	3621	3621	3621	3621	3583	3583	3583	3510	3510	0	0	0	0	0	0	0	0
4350	4350	4350	4406	4406	4350	4350	4350	4350	4243	4243	4243	4243	4243	4243	4192	4192	4192	4192	4243	4243	4243	4243	4243	4243	4243	4192	4192	4192	4243	4243	4243	4243	4243	4243	4243	4243	4243	4243	4243	4243	4296	4296	4296	4296	4296	4296	4243	4243	4243	4243	4192	4243	4243	4243	4296	4296	4296	4296	4296	4296	4296	4350	4296	4296	4296	4296	4296	4296	4296	4243	4243	4243	4243	4243	4192	4142	4142	4142	4142	4142	4142	4142	4142	4142	4142	4142	4192	4192	4243	4243	4243	4192	4192	4243	4243	4192	4192	4142	4142	4142	4192	4142	4142	4142	4142	4192	4192	4192	4243	4243	4243	4192	4243	4192	4192	4192	4192	4192	4192	4192	4142	4142	4142	4093	0	0	0	0	0	0	0	0	0	0	0	0	0	0	0	0	0	0	0	0	0	0	0	0	0	0	0	0	0	0	0	0	0	0	0	0	0	0	0	0	0	0	0	0	0	0	0	0	0	0	0	0	0	0	0	0	0	0	0	0	0	0	850	850	848	848	845	843	843	841	841	839	843	843	843	843	845	845	845	0	0	0	0	0	0	0	0	843	858	858	856	854	850	854	856	856	856	850	850	850	0	839	839	841	843	843	843	843	0	0	0	0	0	0	0	0	0	0	0	0	843	843	841	843	845	848	850	852	852	854	854	854	854	854	854	843	848	848	850	850	852	850	850	848	845	843	839	837	835	833	831	829	827	823	821	819	817	815	814	810	806	800	798	845	845	845	843	841	841	839	839	839	837	837	835	833	833	831	831	831	831	831	831	831	831	831	831	831	831	831	831	831	831	831	831	827	827	827	827	827	827	827	827	827	827	827	827	827	827	827	827	825	825	819	815	815	815	815	815	819	817	819	819	819	819	821	821	821	823	823	827	827	829	829	829	829	829	829	827	829	827	827	827	827	823	825	825	825	827	829	833	835	837	837	841	839	841	845	848	850	850	852	852	854	854	854	858	858	858	856	856	854	854	852	852	850	850	848	845	843	841	841	839	835	831	831	827	0	0	867	867	867	862	858	858	858	858	858	856	856	856	856	858	858	858	848	848	843	843	843	843	843	843	845	843	843	841	841	841	839	839	827	3779	3779	3738	3738	3738	3698	3738	3738	3738	3779	3779	3738	3779	3779	3779	3779	3779	3779	3779	3779	3738	3698	3698	3698	3738	3698	3738	3738	3738	3738	3738	3738	3738	3779	3738	3738	3779	3779	3779	3779	3738	3738	3738	3738	3698	3698	3698	3698	3738	3738	3738	3621	3621	0	0	0	0	0	0	0	0	0	0	0	0	0	0	0	0	6349	6349	6468	6468	6468	6468	6468	0	0	0	0	0	0	0	0	0	0	0	0	5626	5626	5626	5719	5719	5815	5626	5626	5535	5626	5448	5448	5364	5448	5364	5448	5448	5364	5364	5364	5448	5448	5125	5125	5125	5050	5050	5050	5050	5050	5050	4977	4977	4906	4977	4906	4977	4977	4906	4906	4906	4906	4838	4771	4706	4706	4706	4706	4706	4706	4706	4706	4706	4643	4643	4643	4643	4463	4463	4406	4406	4406	4406	4406	4406	4406	4406	4406	4406	4350	4350	4296	4243	4243	4243	4192	4192	4192	4142	3952	3821	3821	3779	3659	3659	3659	3621	3621	3621	3621	3621	3583	3583	3583	3583	3546	3510	0	0	0	0	0	0	0	0
4350	4350	4350	4406	4406	4350	4350	4350	4350	4243	4296	4243	4243	4243	4243	4243	4243	4243	4243	4243	4243	4243	4296	4243	4243	4243	4243	4243	4192	4243	4243	4243	4243	4243	4243	4243	4243	4243	4243	4243	4243	4296	4296	4243	4243	4243	4243	4243	4243	4192	4192	4192	4192	4243	4243	4243	4243	4296	4296	4296	4296	4296	4350	4296	4296	4296	4296	4296	4296	4296	4296	4243	4243	4243	4243	4192	4192	4192	4192	4192	4192	4192	4192	4142	4142	4142	4142	4142	4192	4192	4192	4243	4192	4192	4243	4243	4192	4192	4192	4192	4142	4142	4142	4142	4142	4192	4243	4243	4243	4243	4243	4243	4192	4243	4192	4192	4192	4243	4192	4192	4192	4192	4142	4142	4093	0	0	0	0	0	0	0	0	0	0	0	0	0	0	0	0	0	0	0	0	0	0	0	0	0	0	0	0	0	0	0	0	0	0	0	0	0	0	0	0	0	0	0	0	0	0	0	0	0	0	0	0	0	0	0	0	0	0	0	0	0	0	852	850	848	848	845	843	841	839	839	839	839	841	843	843	845	843	845	0	0	0	0	0	0	0	0	0	843	843	843	845	845	850	852	856	858	858	829	829	839	839	839	841	841	841	843	845	845	0	858	862	0	0	0	0	0	0	0	841	841	841	841	841	843	845	848	848	850	850	850	852	852	841	839	843	843	843	845	848	848	848	845	845	843	841	837	835	833	831	829	827	825	823	821	819	817	815	814	810	806	800	798	798	798	797	841	841	839	839	839	837	837	835	833	833	833	831	831	831	831	831	831	831	831	831	831	831	831	831	831	831	831	831	829	827	827	827	827	827	827	827	827	827	827	827	827	827	827	827	806	815	815	817	814	814	814	814	814	817	817	817	819	819	819	819	821	821	821	821	821	825	827	827	827	827	827	827	825	827	823	825	823	825	821	823	823	825	825	827	831	833	835	835	837	837	837	839	843	845	848	850	850	852	852	852	854	854	854	854	854	854	852	852	850	850	848	845	843	841	839	839	837	833	829	827	827	819	819	819	865	865	862	858	858	858	858	858	856	856	854	854	854	856	856	845	850	845	845	843	843	843	845	845	843	843	841	841	839	837	833	831	829	829	3738	3738	3738	823	831	3821	3821	3821	3738	3738	3738	3738	3779	3738	3738	3779	3779	3738	3738	3698	3698	3698	3698	3698	3738	3738	3738	3738	3738	3738	3738	3738	3738	3738	3779	3779	3779	3738	3738	3738	3738	3738	3698	3698	3698	3738	3738	3738	3738	3698	3583	0	0	0	0	0	0	0	0	0	0	0	0	0	0	0	0	6468	6349	6468	6468	6468	6468	6468	6349	0	0	0	0	0	0	0	0	0	0	5626	5626	5626	5626	5719	5719	5719	5719	5719	5535	5626	5535	5448	5282	5448	5364	5448	5448	5364	5364	5364	5448	5448	5125	5125	5125	5050	5050	5050	5125	5050	5050	4977	4977	4977	4977	4977	4977	4977	4906	4838	4838	4838	4838	4771	4706	4706	4706	4706	4706	4706	4706	4706	4706	4643	4643	4643	4643	4521	4463	4406	4406	4463	4406	4406	4406	4406	4350	4406	4350	4350	4350	4296	4296	4243	4243	4192	4192	4192	4142	3952	3779	3779	3698	3659	3659	3659	3621	3621	3621	3621	3621	3583	3583	3583	3583	3546	3546	0	0	0	0	0	0	0	0
4243	4296	4296	4350	4406	4350	4350	4350	4350	4243	4243	4243	4243	4243	4243	4243	4243	4243	4243	4243	4243	4243	4243	4243	4243	4243	4192	4192	4192	4192	4192	4192	4243	4192	4243	4243	4243	4243	4243	4243	4243	4296	4243	4243	4243	4243	4243	4243	4243	4192	4192	4192	4192	4192	4192	4243	4243	4243	4243	4243	4243	4243	4296	4296	4296	4296	4296	4296	4296	4296	4296	4243	4243	4243	4243	4243	4192	4192	4192	4192	4243	4192	4192	4192	4192	4192	4192	4192	4192	4142	4192	4192	4192	4192	4243	4243	4192	4192	4142	4142	4142	4142	4142	4142	4142	4192	4243	4192	4243	4192	4243	4243	4192	4243	4243	4243	4243	4243	4243	4192	4192	4192	4142	4142	4142	4142	0	0	0	0	0	0	0	0	0	0	0	0	0	0	0	0	0	0	0	0	0	0	0	0	0	0	0	0	0	0	0	0	0	0	0	0	0	0	0	0	0	0	0	0	0	0	0	0	0	0	0	0	0	0	0	0	0	0	0	0	0	852	850	848	845	843	841	839	837	835	833	831	831	825	825	819	819	0	0	843	0	0	839	841	841	841	841	841	841	841	843	843	843	837	829	829	823	829	829	835	837	839	841	841	841	841	845	843	852	858	860	0	0	0	0	0	0	0	841	841	841	841	843	843	848	848	850	850	850	848	850	843	841	839	839	839	841	843	843	845	845	843	843	839	837	835	833	831	829	827	827	825	823	821	819	817	815	812	810	806	802	800	800	800	797	797	839	839	839	839	837	837	835	833	831	833	831	831	831	831	831	831	831	831	831	831	831	831	831	829	831	831	829	829	827	827	827	827	827	827	827	827	827	827	827	797	797	804	802	806	806	810	812	812	812	814	814	814	815	815	815	817	817	817	819	819	821	821	821	823	825	825	825	827	825	825	823	823	821	821	821	819	821	819	821	821	823	825	825	827	831	833	835	835	835	835	837	839	841	843	848	848	850	850	852	852	854	854	854	852	852	852	852	850	848	848	843	841	837	835	835	833	829	825	823	821	819	819	819	819	865	860	858	858	858	856	856	854	854	850	850	850	854	845	841	848	843	843	843	843	843	843	843	841	841	839	839	839	835	833	831	831	831	827	827	825	823	831	827	827	827	3738	3738	3738	3738	3779	3738	3738	3738	3738	3738	3738	3698	3698	3698	3698	3698	3698	3738	3738	3738	3738	3738	3738	3738	3738	3738	3779	3779	3738	3738	3738	3738	3738	3738	3738	3698	3698	3738	3738	3738	3738	3698	3621	0	0	0	0	0	0	0	0	0	0	0	0	0	0	0	0	0	6468	6468	6592	6468	6468	6468	6349	0	0	0	0	0	0	0	0	0	0	5626	5626	5626	5626	5626	5626	5719	5719	5719	5626	5626	5535	5448	5364	5448	5448	5364	5448	5364	5364	5364	5364	5364	5282	5282	5202	5125	5050	5125	5125	5050	5050	4977	4977	4977	4977	4906	4977	4977	4906	4906	4906	4906	4771	4771	4706	4706	4706	4706	4706	4706	4706	4706	4706	4643	4643	4643	4643	4581	4581	4521	4406	4463	4406	4406	4350	4350	4350	4350	4350	4296	4296	4296	4296	4296	4243	4243	4192	4192	4192	4192	3779	3698	3659	3659	3659	3659	3659	3621	3621	3621	3621	3583	3583	3583	3583	3546	3546	0	0	0	0	0	0	0	0
4243	4243	4296	4350	4350	4350	4296	4296	4296	4243	4243	4243	4243	4243	4243	4243	4243	4243	4243	4243	4243	4243	4296	4243	4243	4243	4243	4243	4192	4192	4192	4192	4192	4192	4192	4243	4243	4192	4192	4243	4243	4296	4243	4243	4243	4243	4243	4243	4243	4192	4192	4192	4192	4192	4192	4243	4243	4243	4243	4243	4243	4243	4296	4296	4296	4296	4296	4296	4296	4296	4296	4243	4243	4243	4243	4192	4192	4192	4192	4192	4192	4192	4192	4192	4192	4192	4192	4192	4192	4192	4192	4192	4243	4192	4243	4243	4243	4192	4192	4192	4142	4142	4142	4192	4192	4192	4243	4192	4243	4192	4243	4243	4243	4243	4243	4243	4243	4243	4243	4243	4243	4192	4192	4192	4142	0	0	0	0	0	0	0	0	0	0	0	0	0	0	0	0	0	0	0	0	0	0	0	0	0	0	0	0	0	0	0	0	0	0	0	0	0	0	0	0	0	0	0	0	0	0	0	0	0	0	0	0	0	0	0	0	0	0	0	0	0	854	854	850	848	845	843	841	839	837	833	829	827	827	825	825	819	819	819	0	841	837	837	837	839	839	839	839	839	839	839	841	839	837	837	829	829	823	825	829	833	835	835	839	841	841	841	845	845	850	856	858	860	0	0	0	0	0	837	839	839	839	841	841	843	845	848	848	850	848	848	845	839	837	837	837	837	839	837	839	841	841	841	839	837	835	833	831	829	829	827	825	825	823	821	819	817	814	812	808	806	804	802	800	800	798	797	839	839	839	839	837	837	835	833	831	831	831	831	831	831	831	831	831	831	831	831	831	831	831	831	831	831	829	829	827	827	827	827	827	827	827	827	827	797	797	797	797	804	802	804	806	808	810	810	812	812	812	814	814	814	815	815	817	817	819	819	819	821	821	821	821	821	821	821	821	821	821	821	819	819	819	819	819	817	819	819	821	821	823	825	827	829	831	833	833	833	835	835	837	837	843	843	848	850	850	852	852	852	852	852	852	850	850	850	848	845	843	839	835	833	833	829	827	823	823	819	819	817	817	817	817	860	856	854	854	856	854	852	850	848	845	835	833	835	833	850	837	841	841	841	841	841	841	841	839	839	839	839	835	833	831	831	829	827	825	825	823	831	827	827	827	835	837	839	3779	3779	3779	3779	3779	3779	3738	3738	3659	3698	3659	3698	3698	3698	3738	3738	3738	3738	3738	3738	3779	3779	3738	3738	3738	3738	3738	3738	3738	3738	3738	3738	3698	3738	3698	3738	3738	3738	3621	3621	0	0	0	0	0	0	0	0	0	0	0	0	0	0	0	6349	6349	6468	6468	6468	6468	6468	6468	6349	6349	6124	6124	0	0	0	0	0	0	0	5626	5626	5626	5535	5626	5535	5626	5626	5719	5626	5626	5535	5448	5364	5448	5364	5364	5448	5364	5364	5364	5448	5364	5282	5282	5282	5125	5125	5202	5125	5050	5050	4977	4977	4977	4977	4977	4977	4977	4906	4838	4838	4771	4771	4771	4771	4706	4706	4771	4706	4706	4706	4706	4706	4643	4643	4643	4643	4581	4581	4521	4463	4463	4406	4406	4350	4350	4350	4296	4350	4296	4296	4296	4296	4296	4243	4243	4243	4192	4192	3738	3698	3698	3698	3659	3659	3659	3621	3621	3621	3621	3583	3583	3546	3583	3583	3546	3546	0	0	0	0	0	0	0	0
4296	4296	4296	4296	4296	4350	4296	4296	4296	4296	4296	4243	4243	4243	4243	4243	4192	4243	4243	4243	4243	4296	4296	4243	4296	4243	4243	4192	4192	4192	4192	4192	4192	4192	4192	4192	4192	4192	4192	4243	4243	4243	4243	4243	4243	4243	4243	4243	4192	4192	4192	4192	4192	4243	4192	4243	4243	4296	4296	4296	4296	4296	4296	4296	4296	4296	4296	4296	4296	4296	4296	4243	4243	4243	4243	4192	4192	4192	4192	4142	4192	4192	4192	4192	4192	4243	4243	4243	4192	4192	4243	4243	4243	4192	4243	4192	4192	4192	4192	4192	4142	4192	4192	4192	4192	4192	4243	4192	4243	4192	4192	4192	4243	4192	4192	4192	4243	4243	4243	4243	4243	4243	4192	4243	4192	0	0	0	0	0	0	0	0	0	0	0	0	0	0	0	0	0	0	0	0	0	0	0	0	0	0	0	0	0	0	0	0	0	0	0	0	0	0	0	0	0	0	0	0	0	0	0	0	0	0	0	0	0	0	0	0	0	0	0	0	0	854	854	852	848	845	843	841	839	835	831	827	827	825	823	819	819	819	819	837	837	835	837	837	837	837	837	837	839	839	837	837	835	845	845	827	827	823	825	827	829	831	833	835	839	839	841	843	845	850	854	856	858	0	0	0	0	833	835	835	837	839	839	841	843	845	848	848	848	848	848	845	839	837	835	835	835	835	835	835	835	837	835	835	833	833	831	829	829	827	825	825	825	823	821	819	815	814	810	808	806	804	802	802	800	798	797	795	793	839	839	791	837	835	789	789	788	829	829	831	831	831	831	831	831	831	829	829	831	831	831	831	831	829	831	827	829	829	829	829	829	797	797	797	797	797	798	798	800	802	802	804	806	806	808	810	812	812	812	814	814	814	815	815	817	817	819	819	819	819	819	819	819	819	819	821	821	819	819	817	817	817	817	817	817	817	819	819	821	821	823	823	827	829	829	831	831	831	833	833	833	835	837	843	848	850	850	852	852	850	850	850	850	850	848	843	843	839	835	833	833	829	827	825	821	821	819	817	817	817	815	815	814	814	852	852	852	850	848	850	835	835	833	831	831	831	854	833	833	835	839	839	839	839	837	837	837	837	835	833	829	827	827	825	825	823	821	821	831	829	829	831	833	835	837	837	3779	3779	3779	3779	3779	3738	3698	3659	3659	3659	3698	3698	3698	3738	3738	3738	3738	3738	3738	3738	3738	3738	3738	3738	3738	3738	3738	3738	3738	3738	3738	3698	3738	3698	3738	3738	3738	3659	3621	0	0	0	0	0	0	0	0	0	0	0	0	0	0	0	0	6349	6349	6349	6349	6235	6235	6349	6349	6124	6124	6124	6124	0	0	0	0	0	0	5626	5626	5535	5535	5535	5535	5535	5626	5719	5626	5626	5535	5535	5448	5448	5448	5448	5448	5364	5448	5448	5364	5282	5202	5282	5282	5125	5125	5202	5125	5050	5050	4977	4977	4977	4977	4977	4977	4906	4906	4906	4771	4771	4838	4771	4771	4706	4706	4771	4706	4706	4706	4706	4643	4643	4643	4643	4643	4581	4521	4521	4463	4463	4406	4406	4350	4350	4243	4243	4243	4243	4243	4243	4296	4296	4296	4296	4243	4243	4243	3738	3738	3698	3659	3659	3659	3621	3621	3621	3621	3583	3583	3583	3546	3583	3546	3546	3546	0	0	0	0	0	0	0	0
4243	4243	4243	4243	4243	4243	4243	4296	4296	4243	4296	4243	4243	4243	4243	4243	4192	4192	4192	4243	4243	4243	4296	4243	4296	4243	4192	4192	4192	4192	4192	4192	4192	4192	4192	4192	4192	4192	4192	4243	4243	4296	4243	4243	4243	4243	4243	4243	4243	4192	4192	4192	4243	4243	4243	4243	4243	4296	4296	4243	4296	4296	4296	4296	4296	4296	4296	4243	4243	4243	4296	4296	4243	4243	4243	4192	4192	4192	4192	4192	4192	4243	4243	4243	4243	4243	4243	4243	4243	4192	4243	4243	4243	4243	4243	4243	4192	4192	4192	4192	4142	4192	4192	4192	4192	4192	4192	4192	4243	4192	4243	4192	4243	4243	4243	4192	4192	4243	4192	4243	4192	4192	4192	4243	4192	0	0	0	0	0	0	0	0	0	0	0	0	0	0	0	0	0	0	0	0	0	0	0	0	0	0	0	0	0	0	0	0	0	0	0	0	0	0	0	0	0	0	0	0	0	0	0	0	0	0	0	0	0	0	0	0	0	0	0	0	0	852	854	852	848	845	839	841	835	829	827	825	823	821	819	817	817	817	817	817	835	835	835	835	837	837	835	837	837	837	837	835	833	833	819	819	823	821	823	825	829	831	831	833	835	837	837	841	843	848	854	856	858	0	0	0	0	831	833	835	837	839	839	841	841	843	848	848	848	848	850	845	835	835	833	833	833	833	833	833	833	833	833	831	831	831	829	827	827	825	825	823	823	821	819	817	814	812	808	808	806	804	802	802	800	798	797	795	795	793	791	791	789	789	789	789	788	788	829	831	829	831	831	831	786	831	829	831	831	829	831	831	831	829	831	827	827	829	788	789	791	789	797	797	797	797	798	800	802	802	802	804	806	806	808	808	810	810	812	812	812	814	814	814	815	815	817	817	819	819	819	821	819	819	819	819	819	817	817	815	814	815	815	817	815	817	817	819	819	819	821	821	825	827	827	827	829	829	831	831	829	829	831	835	835	848	850	850	850	850	848	850	848	848	843	841	839	837	835	833	831	829	825	823	821	819	819	817	817	815	814	814	812	810	810	810	850	850	845	845	835	835	833	829	829	829	862	862	831	831	835	837	837	837	835	835	835	835	833	831	827	825	823	823	821	819	819	819	833	831	831	831	833	835	837	837	839	841	3738	3738	3779	3779	3698	3659	3659	3659	3659	3698	3738	3738	3738	3738	3738	3738	3738	3738	3738	3738	3738	3738	3738	3738	3738	3738	3738	3738	3738	3698	3738	3698	3698	3738	3738	3659	3621	3621	0	0	0	0	0	0	0	0	0	0	0	0	0	0	0	0	6349	6349	6349	6235	6235	6235	6124	6235	6124	6124	0	0	0	0	0	0	0	0	0	0	0	0	0	0	0	5626	5535	5626	5535	5448	5448	5448	5448	5364	5448	5364	5364	5364	5364	5364	5282	5364	5282	5202	5202	5202	5202	5125	5050	4977	4977	4977	5050	4977	4977	4977	4977	4838	4838	4771	4838	4771	4771	4706	4771	4771	4706	4706	4706	4706	4643	4643	4643	4643	4643	4521	4463	4463	4463	4406	4406	4406	4296	4243	4243	4192	4243	4243	4243	4243	4296	4296	4296	4296	4243	4093	4093	3779	3779	3738	3698	3659	3659	3621	3621	3621	3583	3583	3583	3546	3546	3546	3546	3546	3546	0	0	0	0	0	0	0	0
4243	4243	4243	4243	4243	4243	4243	4296	4296	4296	4296	4243	4243	4243	4243	4243	4192	4243	4243	4243	4243	4296	4296	4296	4296	4296	4243	4243	4192	4192	4192	4192	4192	4192	4192	4192	4192	4192	4192	4192	4243	4243	4243	4243	4243	4243	4243	4243	4243	4243	4243	4243	4243	4243	4243	4243	4243	4243	4243	4243	4243	4243	4296	4296	4296	4296	4296	4243	4243	4243	4296	4296	4243	4243	4243	4192	4192	4192	4142	4192	4192	4192	4192	4192	4192	4243	4243	4243	4243	4192	4192	4192	4243	4243	4243	4243	4243	4243	4243	4192	4192	4192	4192	4192	4192	4192	4192	4192	4243	4192	4192	4192	4243	4243	4243	4243	4243	4243	4243	4243	4192	4192	4192	4243	4243	0	0	0	0	0	0	0	0	0	0	0	0	0	0	0	0	0	0	0	0	0	0	0	0	0	0	0	0	0	0	0	0	0	0	0	0	0	0	0	0	0	0	0	0	0	0	0	0	0	0	0	0	0	0	0	0	0	0	0	0	0	845	848	845	845	843	837	833	831	827	825	823	819	817	817	815	814	815	814	815	815	835	835	835	835	835	835	835	837	837	835	833	833	817	815	817	819	819	823	825	827	829	829	831	833	835	835	837	839	843	848	856	856	823	0	827	827	829	831	833	835	837	837	839	841	843	845	848	848	848	848	827	831	831	831	831	831	831	831	831	831	831	831	831	829	829	827	825	827	825	823	823	823	821	817	815	814	810	808	808	806	804	802	800	800	798	797	795	793	793	791	791	791	789	789	789	788	788	786	786	786	786	784	784	786	786	786	786	788	788	788	788	788	788	788	784	786	784	789	791	789	791	795	797	797	798	798	798	800	800	802	804	804	804	808	808	810	810	812	812	812	812	812	814	814	814	814	814	817	819	819	819	819	819	819	819	817	817	815	814	812	812	814	815	815	815	817	817	819	819	819	821	823	825	825	825	827	827	829	829	827	827	827	829	829	829	848	850	848	848	848	848	845	841	839	837	837	835	833	833	831	827	825	821	819	819	817	815	815	815	814	812	812	808	808	804	804	804	800	833	833	833	831	829	827	827	862	862	865	865	835	835	835	835	833	833	833	833	831	829	825	823	821	819	819	817	817	817	833	831	831	831	833	835	835	837	839	839	839	841	3779	3738	3698	3659	3659	3659	3698	3738	3738	3738	3738	3738	3738	3738	3738	3738	3738	3779	3738	3738	3738	3738	3738	3698	3698	3698	3698	3698	3698	3698	3698	3738	3738	3659	3621	3621	0	0	0	0	0	0	0	0	0	0	0	0	0	0	0	0	0	0	0	6235	6235	6235	6235	6235	6235	6235	0	0	0	0	0	0	0	0	0	0	0	0	0	0	5626	5626	5626	5719	5535	5448	5448	5448	5448	5364	5364	5364	5364	5364	5364	5202	5202	5282	5282	5202	5202	5202	5202	5125	5125	4977	4977	4977	5125	4977	4977	4977	4977	4906	4906	4838	4838	4838	4706	4706	4706	4706	4706	4706	4706	4643	4643	4643	4643	4581	4581	4521	4463	4463	4463	4406	4350	4406	4350	4296	4296	4243	4296	4296	4296	4296	4296	4296	4296	4296	4243	4243	4243	3698	3698	3698	3698	3659	3659	3659	3621	3621	3621	3583	3583	3546	3546	3546	3546	3510	3510	0	0	0	0	0	0	0	0
4243	4243	4243	4243	4243	4243	4243	4243	4243	4296	4243	4243	4243	4243	4243	4192	4192	4192	4243	4243	4243	4296	4296	4296	4296	4296	4243	4243	4243	4243	4192	4192	4192	4192	4192	4192	4192	4192	4243	4243	4243	4243	4296	4243	4243	4243	4243	4243	4243	4243	4243	4243	4243	4243	4243	4243	4243	4243	4243	4192	4243	4243	4243	4243	4296	4296	4243	4243	4243	4243	4296	4296	4296	4243	4243	4243	4192	4192	4142	4192	4192	4192	4192	4192	4192	4192	4243	4243	4192	4192	4192	4192	4243	4243	4192	4192	4192	4192	4192	4192	4142	4192	4192	4192	4192	4192	4192	4192	4243	4192	4192	4192	4243	4192	4192	4243	4192	4243	4243	4243	4192	4192	4192	4296	4243	4296	0	0	0	0	0	0	0	0	0	0	0	0	0	0	0	0	0	0	0	0	0	0	0	0	0	0	0	0	0	0	0	0	0	0	0	0	0	0	0	0	0	0	0	0	0	0	0	0	0	0	0	0	0	0	0	0	0	0	0	0	0	843	843	841	835	833	829	829	825	823	819	815	815	815	814	812	814	814	814	817	817	833	833	833	835	833	833	835	835	835	835	817	817	815	817	819	817	819	823	825	829	829	831	833	833	835	835	837	839	839	839	819	823	823	823	825	827	829	831	833	835	835	837	839	841	843	843	843	825	825	825	827	829	829	829	829	829	829	831	829	827	827	827	827	827	825	823	823	823	821	821	819	817	815	814	812	810	808	808	804	802	800	800	798	798	797	795	793	793	791	791	791	789	789	789	788	788	786	786	786	784	784	784	784	786	786	786	786	786	786	788	788	788	788	786	786	788	789	791	789	791	793	797	797	797	797	798	798	800	802	804	804	806	806	808	806	806	806	810	808	810	812	812	812	812	812	812	814	817	814	817	819	817	817	817	815	814	810	810	808	808	810	812	812	814	815	815	817	817	819	819	819	821	821	821	821	823	825	825	825	825	825	827	827	825	825	845	848	843	843	843	841	837	837	837	835	835	833	831	829	825	823	819	817	815	814	814	814	814	812	812	810	808	806	804	802	800	800	800	831	829	827	825	823	823	862	865	865	865	865	833	833	833	831	831	831	829	825	825	823	819	819	817	817	817	817	817	831	831	831	831	831	833	835	835	837	839	839	839	839	835	3659	3659	3659	3659	3698	3738	3738	3738	3738	3738	3738	3738	3738	3738	3738	3738	3738	3738	3738	3738	3738	3738	3738	3698	3698	3698	3698	3698	3698	3698	3738	3659	3659	3621	0	0	0	0	0	0	0	0	0	0	0	0	0	0	0	0	0	0	0	6124	6124	6124	6124	6124	0	0	0	0	0	0	0	0	0	0	0	0	0	0	0	0	5535	5626	5535	5626	5535	5535	5535	5535	5448	5448	5448	5448	5364	5364	5448	5282	5282	5364	5364	5282	5282	5282	5282	5282	5050	5050	5050	4977	4977	4977	4906	4977	4977	4906	4906	4838	4838	4838	4706	4706	4706	4706	4643	4706	4706	4643	4643	4643	4581	4581	4581	4521	4463	4463	4463	4406	4406	4406	4296	4296	4243	4243	4243	4243	4243	4243	4296	4296	4296	4296	4243	4243	0	0	3698	3698	3698	3659	3659	3659	3621	3621	3621	3583	3583	3546	3546	3510	3510	3510	3510	0	0	0	0	0	0	0	0
4296	4243	4243	4243	4243	4243	4192	4243	4243	4243	4243	4243	4243	4243	4243	4243	4192	4192	4243	4243	4243	4296	4350	4296	4296	4296	4243	4243	4243	4243	4243	4192	4192	4243	4192	4192	4192	4192	4243	4243	4243	4243	4296	4243	4243	4243	4243	4243	4243	4243	4243	4243	4243	4192	4192	4192	4192	4192	4243	4243	4243	4243	4243	4243	4243	4296	4243	4192	4243	4243	4296	4296	4243	4243	4243	4243	4192	4192	4192	4192	4192	4192	4192	4192	4192	4243	4243	4243	4243	4192	4192	4192	4243	4243	4192	4192	4192	4192	4192	4192	4142	4192	4192	4192	4192	4192	4192	4192	4192	4192	4192	4192	4243	4192	4243	4243	4243	4243	4243	4243	4192	4192	4142	4296	4243	0	0	0	0	0	0	0	0	0	0	0	0	0	0	0	0	0	0	0	0	0	0	0	0	0	0	0	0	0	0	0	0	0	0	0	0	0	0	0	0	0	0	0	0	0	0	0	0	0	0	0	0	0	0	0	0	0	0	0	0	0	0	0	839	839	831	829	827	825	821	819	817	814	812	812	812	812	812	812	812	814	814	829	829	833	833	831	833	835	835	810	810	810	812	812	814	815	815	817	819	823	829	829	831	831	833	833	835	835	837	837	819	819	819	821	821	825	827	829	829	831	833	835	835	837	841	843	843	819	823	823	823	825	827	827	827	827	827	827	827	827	825	825	825	825	825	823	821	821	821	821	819	817	815	814	814	812	810	808	806	804	802	800	800	798	798	797	795	793	793	793	791	791	791	789	789	788	788	786	786	786	786	784	784	784	786	786	786	786	786	786	786	786	786	788	786	786	788	789	791	791	791	793	795	797	797	797	798	800	800	800	802	802	804	806	806	806	806	806	806	806	806	808	808	808	810	810	812	812	814	814	814	817	815	815	815	814	810	808	808	806	806	808	810	810	812	812	814	815	815	815	815	815	817	819	817	819	819	821	823	823	823	823	825	825	823	823	825	825	831	839	837	837	835	833	835	833	833	831	829	827	825	821	817	815	814	812	812	812	812	810	810	810	806	806	802	802	800	800	800	798	827	825	823	821	810	808	806	865	865	867	867	829	829	829	829	825	823	819	821	819	817	815	815	814	814	815	815	817	827	829	829	831	833	833	835	837	837	837	837	839	835	835	833	833	3738	3738	3738	3738	3738	3738	3738	3738	3738	3738	3738	3738	3779	3738	3738	3738	3738	3738	3738	3738	3698	3698	3698	3698	3698	3698	3698	3738	3698	3698	3659	0	0	0	0	0	0	0	0	0	0	0	0	0	0	0	0	0	0	0	0	6124	6018	0	6018	0	0	0	0	0	0	0	0	0	0	0	0	0	0	0	0	5535	5535	5535	5535	5719	5626	5535	5535	5535	5448	5448	5448	5448	5448	0	5364	5364	5364	5364	5282	5125	5282	5282	5282	5282	5050	4977	4977	4977	4977	4906	4906	4906	4838	4838	4838	4706	4706	4706	4706	4643	4643	4643	4643	4643	4643	4643	4643	4643	4581	4581	4521	4463	4463	4463	4463	4406	4406	4350	4350	4296	4296	4296	4243	4243	4243	4296	4296	4296	4296	4243	0	4243	0	3698	0	3698	3659	3659	3659	3621	3621	3621	3621	3583	3546	3546	3510	3510	3510	3510	0	0	0	0	0	0	0	0
4243	4243	4243	4192	4192	4192	4192	4243	4243	4243	4243	4243	4243	4243	4243	4192	4192	4192	4192	4192	4243	4296	4296	4296	4296	4296	4243	4243	4243	4243	4243	4192	4192	4243	4192	4192	4192	4192	4243	4243	4243	4243	4296	4296	4296	4296	4296	4296	4296	4296	4243	4243	4243	4243	4192	4192	4192	4192	4243	4192	4243	4243	4243	4243	4243	4243	4243	4192	4192	4192	4243	4243	4243	4192	4192	4192	4192	4192	4192	4192	4192	4192	4192	4192	4192	4192	4243	4243	4243	4192	4243	4243	4243	4243	4192	4192	4142	4192	4192	4192	4142	4142	4192	4192	4192	4192	4192	4192	4192	4192	4192	4192	4243	4192	4243	4243	4192	4243	4192	4192	4192	4192	4142	0	0	0	0	0	0	0	0	0	0	0	0	0	0	0	0	0	0	0	0	0	0	0	0	0	0	0	0	0	0	0	0	0	0	0	0	0	0	0	0	0	0	0	0	0	0	0	0	0	0	0	0	0	0	0	0	0	0	0	0	0	0	0	0	0	837	835	829	827	825	823	819	815	817	812	812	812	810	810	810	810	812	812	814	814	823	819	831	827	825	812	812	810	808	810	812	810	812	812	814	815	817	823	829	829	829	831	831	833	833	833	833	829	819	819	819	819	821	823	825	825	827	829	831	833	833	833	833	815	815	819	819	819	821	823	825	825	825	825	825	825	825	825	825	825	825	825	825	821	821	821	819	817	817	815	814	814	812	810	810	808	806	804	802	800	798	798	798	797	795	793	793	793	791	791	791	789	789	788	788	786	786	786	786	786	786	784	786	786	786	786	786	786	786	786	786	786	786	788	789	789	791	791	791	793	795	797	797	798	798	798	800	800	802	802	804	804	806	806	806	806	804	806	806	806	806	806	806	808	808	808	812	812	812	814	814	812	812	810	808	806	806	806	806	806	808	808	808	810	812	814	814	815	814	815	817	817	817	817	817	819	819	821	821	821	821	823	821	821	823	823	823	829	831	833	833	831	833	833	831	829	827	825	823	821	817	815	814	812	812	810	810	810	810	808	804	804	802	800	800	800	798	798	797	797	810	810	808	806	806	806	867	867	867	825	825	825	823	819	819	817	817	817	815	814	814	812	812	814	814	814	819	825	827	829	831	833	833	835	835	835	835	835	833	833	833	829	0	3779	3779	3738	3738	3738	3738	3738	3738	3738	3738	3738	3779	3738	3738	3738	3738	3738	3738	3698	3698	3698	3698	3698	3698	3698	3698	3698	3698	3698	3698	0	0	0	0	0	0	0	0	0	0	0	0	0	0	0	0	0	0	0	6018	6018	6018	6018	6018	6018	0	0	0	0	0	0	0	0	0	0	0	0	0	0	0	5626	5626	5535	5535	5719	5626	5626	5535	5535	5448	5535	5535	0	0	0	5364	5364	5364	5282	5202	5125	5202	5202	5202	5050	5050	4977	4977	4977	4906	4906	4838	4906	4838	4838	4771	4771	4643	4643	4521	4643	4643	4643	4643	4643	4643	4643	4643	4581	4581	4581	4521	4463	4463	4463	4463	4463	4463	4350	4350	4350	4296	4296	4243	4243	4243	4296	4296	4296	4296	4243	4243	4243	0	0	0	3738	3698	3659	3659	3621	3621	3621	3583	3583	3546	3546	3510	3510	3510	3510	0	0	0	0	0	0	0	0
4243	4243	4243	4192	4192	4192	4192	4243	4243	4243	4243	4243	4243	4243	4243	4192	4192	4192	4192	4243	4243	4296	4296	4296	4296	4296	4243	4243	4243	4243	4243	4243	4192	4243	4192	4192	4243	4243	4243	4243	4243	4243	4296	4243	4243	4243	4296	4296	4296	4296	4296	4296	4296	4243	4243	4243	4243	4243	4243	4243	4243	4243	4243	4243	4243	4243	4243	4192	4192	4192	4243	4243	4192	4192	4192	4192	4142	4192	4142	4142	4192	4192	4192	4192	4192	4192	4192	4192	4192	4192	4243	4192	4243	4243	4192	4192	4192	4142	4142	4142	4142	4142	4142	4142	4142	4192	4192	4192	4243	4192	4192	4192	4243	4192	4192	4192	4192	4192	4192	4192	4192	4192	0	0	0	0	0	0	0	0	0	0	0	0	0	0	0	0	0	0	0	0	0	0	0	0	0	0	0	0	0	0	0	0	0	0	0	0	0	0	0	0	0	0	0	0	0	0	0	0	0	0	0	0	0	0	0	0	0	0	0	0	0	0	0	0	0	0	0	825	825	823	819	817	815	814	814	810	810	810	808	808	810	808	810	810	810	812	812	815	819	819	815	814	812	812	810	810	810	810	810	810	812	812	817	821	827	827	827	829	829	831	831	831	831	831	817	819	819	819	819	821	823	825	827	829	831	833	833	833	833	815	815	815	817	817	819	821	823	823	823	823	823	823	823	823	823	823	823	823	823	821	821	819	819	817	815	815	814	812	810	810	808	808	806	804	802	800	798	798	798	797	795	793	793	793	791	791	789	789	788	788	788	786	786	786	786	786	786	786	786	786	786	786	786	786	786	786	786	786	786	786	788	789	791	789	791	791	795	797	797	798	798	798	798	800	802	800	802	804	804	804	804	804	804	804	804	804	804	804	804	804	806	806	808	810	810	812	812	810	808	806	806	804	804	804	804	806	806	806	806	808	810	812	812	812	812	812	814	815	815	817	817	817	817	819	819	819	821	821	821	819	823	821	821	823	825	829	831	829	831	831	829	827	827	825	823	819	817	814	812	810	810	810	810	808	810	806	804	802	802	800	798	798	798	797	797	795	797	810	806	806	802	802	800	869	869	821	821	821	819	817	817	815	815	814	812	812	810	810	810	810	810	812	812	817	825	827	831	831	833	833	835	835	835	833	833	831	829	829	823	823	3738	3738	3738	3738	3738	3738	3738	3738	3738	3738	3738	3738	3738	3738	3738	3738	3738	3698	3698	3698	3698	3698	3659	3698	3659	3698	3698	3698	3698	0	0	0	0	0	0	0	0	0	0	0	0	0	0	0	0	0	0	0	6018	6018	6018	6018	6124	6124	6018	6018	0	0	0	0	0	0	0	0	0	0	0	0	0	5719	5626	5535	5535	5535	5535	5535	5535	5535	0	0	0	0	0	0	0	0	0	5282	5202	5125	5125	5125	5125	5050	5050	4977	4977	4977	4906	4906	4906	4906	4838	4838	4706	4706	4643	4521	4521	4521	4521	4643	4643	4643	4643	4643	4643	4581	4581	4521	4521	4463	4463	4463	4463	4463	4463	4406	4406	4350	4296	4296	4243	4243	4296	4296	4296	4296	4243	4243	4192	4192	0	4192	0	0	3738	3659	3659	3621	3621	3621	3621	3583	3546	3546	3510	3510	3510	3510	0	0	0	0	0	0	0	0
4192	4192	4192	4192	4192	4243	4243	4243	4243	4243	4243	4243	4243	4243	4243	4243	4192	4243	4243	4243	4243	4296	4296	4296	4296	4296	4243	4243	4243	4243	4243	4243	4192	4243	4192	4243	4243	4243	4243	4243	4243	4243	4296	4243	4243	4243	4243	4243	4243	4243	4243	4243	4243	4243	4243	4192	4192	4192	4192	4192	4192	4243	4192	4192	4243	4243	4243	4243	4243	4192	4296	4243	4243	4192	4192	4192	4142	4192	4142	4192	4192	4192	4192	4192	4192	4192	4192	4243	4243	4243	4243	4243	4243	4243	4243	4192	4192	4192	4192	4142	4142	4142	4142	4142	4142	4192	4192	4192	4243	4192	4192	4192	4192	4192	4192	4192	4192	4192	4192	4192	4142	4142	0	0	0	0	0	0	0	0	0	0	0	0	0	0	0	0	0	0	0	0	0	0	0	0	0	0	0	0	0	0	0	0	0	0	0	0	0	0	0	0	0	0	0	0	0	0	0	0	0	0	0	0	0	0	0	0	0	0	0	0	0	0	0	0	0	0	825	825	821	821	819	815	814	812	810	810	808	810	806	808	808	808	808	808	808	808	812	812	814	814	812	812	810	808	808	808	808	808	810	810	810	810	812	819	825	825	827	827	829	829	831	829	829	817	817	817	817	817	819	819	821	823	825	827	829	831	831	831	831	812	814	814	815	815	817	819	821	823	821	823	823	823	821	821	821	821	821	821	821	819	819	817	815	815	814	814	812	812	810	808	808	806	804	802	800	800	798	798	797	797	795	793	793	793	791	791	789	789	788	788	786	786	786	786	786	786	786	786	786	786	786	786	786	786	786	786	786	786	786	786	788	788	789	789	791	791	793	795	797	797	798	798	798	798	800	800	802	800	802	802	802	802	802	804	804	804	804	804	804	804	806	806	806	808	808	808	810	806	800	802	804	802	804	804	804	804	806	804	804	806	808	808	810	810	810	810	812	814	814	815	815	815	817	815	817	817	817	819	819	817	819	821	821	821	821	823	827	827	827	827	827	825	825	823	821	817	814	812	810	810	810	808	808	808	808	806	802	802	802	800	798	798	798	797	797	795	797	806	806	804	802	800	797	873	873	819	819	819	817	817	815	815	814	812	812	810	808	808	808	810	810	810	812	814	819	823	827	829	831	831	833	833	833	833	831	831	827	825	823	823	3779	3779	3738	3738	3779	3738	3738	3738	3738	3738	3738	3738	3738	3738	3738	3738	3738	3698	3698	3698	3698	3659	3698	3698	3659	3698	3698	3698	0	0	0	0	0	0	0	0	0	0	0	0	0	0	0	0	0	0	0	0	0	6124	0	0	6124	6124	6018	6018	5915	0	0	0	0	0	0	0	0	0	0	0	0	5719	5626	5535	5535	5535	5535	5535	5535	5448	0	0	0	0	0	0	0	0	0	0	5125	5125	5125	5050	5050	5050	4977	4977	4977	4977	4906	4906	4838	4838	4838	4771	4706	4706	4706	4581	4521	4521	4521	4643	4643	4643	4643	4643	4643	4581	4581	4521	4521	4463	4463	4463	4463	4463	4463	4406	4406	4350	4350	4350	4296	4296	4296	4296	4296	4243	4243	4243	4192	4192	4192	4192	0	3659	3659	3659	3659	3621	3621	3621	3621	3583	3583	3583	3510	3510	3510	3510	0	0	0	0	0	0	0	0
4192	4192	4192	4192	4243	4243	4243	4243	4296	4296	4243	4243	4243	4243	4243	4243	4243	4243	4243	4243	4243	4296	4243	4296	4296	4296	4243	4243	4243	4243	4243	4243	4192	4243	4243	4243	4243	4243	4243	4243	4296	4296	4296	4296	4243	4243	4243	4296	4243	4243	4243	4243	4243	4243	4192	4192	4192	4192	4192	4192	4192	4192	4192	4192	4243	4243	4296	4243	4243	4243	4296	4243	4192	4192	4192	4142	4142	4192	4142	4192	4192	4192	4192	4192	4192	4142	4192	4192	4192	4192	4192	4192	4192	4243	4192	4192	4192	4142	4192	4142	4142	4142	4142	4142	4142	4192	4192	4243	4243	4243	4192	4192	4243	4192	4192	4192	4192	4192	4192	4192	4142	4142	4093	0	0	0	0	0	0	0	0	0	0	0	0	0	0	0	0	0	0	0	0	0	0	0	0	0	0	0	0	0	0	0	0	0	0	0	0	0	0	0	0	0	0	0	0	0	0	0	0	0	0	0	0	0	0	0	0	0	0	0	0	0	0	0	825	825	823	823	819	817	817	814	812	812	808	808	806	806	804	804	806	806	806	806	808	808	812	812	810	810	810	810	808	808	806	808	808	808	810	810	808	810	810	812	823	825	825	825	827	829	829	829	815	815	815	815	815	817	817	819	819	821	823	825	827	829	831	831	814	812	814	814	814	815	817	817	819	821	819	821	821	821	819	819	821	819	821	821	821	817	817	815	814	814	814	812	812	810	808	808	808	806	804	800	800	798	798	798	797	795	795	793	793	793	791	791	789	789	788	788	786	786	786	786	786	786	786	786	786	786	786	786	786	786	786	786	786	786	786	788	789	789	789	789	791	791	793	795	797	797	797	798	798	798	798	798	800	798	798	800	800	800	800	802	800	802	802	802	802	804	804	806	806	806	806	806	806	802	800	800	800	800	802	802	802	804	804	804	804	804	806	806	808	808	808	808	810	812	812	812	812	812	814	814	814	815	814	815	815	814	814	817	817	819	819	819	821	823	823	825	825	823	823	819	819	814	812	810	810	808	808	806	806	806	806	804	802	802	800	800	798	797	797	795	795	793	793	806	804	798	797	795	793	795	795	795	817	817	817	815	814	812	812	808	808	806	806	806	806	808	808	810	810	812	817	819	819	825	827	829	831	831	833	831	831	829	825	825	823	823	0	3779	3738	3779	3779	3738	3738	3738	3738	3738	3738	3738	3698	3698	3738	3738	3738	3698	3698	3698	3698	3698	3698	3698	3659	3659	3738	3738	0	0	0	0	0	0	0	0	0	0	0	0	0	0	0	0	0	0	0	0	0	0	0	0	6124	6124	6018	6018	6018	0	0	0	0	0	0	0	0	5719	5719	5626	5626	5626	5535	5535	5535	5535	5535	5535	5448	5448	0	0	0	0	0	0	0	0	0	5282	5282	5125	5125	5050	5050	4977	4977	4977	4977	4906	4906	4838	4838	4838	4771	4771	4706	4706	4706	4581	4521	4521	4521	4643	4643	4643	4643	4643	4643	4581	4581	4581	4521	4463	4463	4463	4463	4463	4463	4406	4406	4406	4350	4350	4350	4350	4296	4296	4296	4243	4243	4243	4192	4192	4192	4192	4142	0	3659	3659	3659	3621	3621	3583	3621	3583	3583	3546	3510	3510	3510	3510	0	0	0	0	0	0	0	0
4192	4192	4243	4243	4243	4243	4243	4296	4350	4350	4296	4296	4296	4243	4296	4296	4243	4243	4296	4296	4243	4296	4243	4296	4296	4296	4243	4243	4243	4243	4243	4243	4192	4243	4243	4243	4243	4243	4243	4243	4296	4296	4296	4243	4243	4243	4243	4243	4243	4243	4243	4243	4243	4192	4192	4192	4192	4192	4192	4142	4142	4192	4192	4192	4243	4296	4296	4243	4243	4243	4243	4243	4192	4192	4192	4142	4142	4142	4142	4142	4142	4142	4142	4142	4142	4142	4192	4142	4192	4192	4192	4192	4192	4192	4192	4142	4142	4142	4142	4142	4142	4142	4142	4142	4142	4192	4192	4243	4243	4243	4243	4243	4243	4192	4192	4192	4192	4192	4192	4192	4192	4142	0	0	0	0	0	0	0	0	0	0	0	0	0	0	0	0	0	0	0	0	0	0	0	0	0	0	0	0	0	0	0	0	0	0	0	0	0	0	0	0	0	0	0	0	0	0	0	0	0	0	0	0	0	0	0	0	0	0	0	0	0	0	0	819	819	821	823	821	819	817	815	814	810	810	806	806	804	804	802	800	798	802	802	804	806	806	810	810	810	808	808	808	806	806	806	806	808	808	810	810	808	810	810	812	817	821	823	823	827	829	829	812	812	812	814	815	815	817	817	817	819	819	821	823	825	827	829	825	814	812	810	812	812	812	814	815	815	817	817	817	819	819	817	817	817	817	817	817	817	815	815	815	814	814	812	812	812	810	808	806	806	804	802	800	800	798	798	797	797	795	793	793	791	791	791	789	789	789	788	788	786	786	786	786	786	786	786	786	786	786	786	786	784	784	786	786	786	786	786	788	789	789	789	791	791	791	793	795	795	797	797	798	798	798	798	798	798	798	798	798	798	798	798	798	800	800	800	802	802	802	804	804	804	806	804	802	802	800	798	798	798	798	800	800	802	804	804	804	804	804	804	806	806	806	808	806	808	810	810	812	812	812	812	812	812	810	810	812	812	810	810	814	815	815	815	817	819	821	821	821	821	821	821	819	815	812	810	810	808	808	806	806	806	804	804	804	800	800	800	798	797	797	795	795	793	793	791	795	791	793	793	791	789	791	791	789	817	817	815	814	812	810	808	806	804	804	802	804	804	806	806	808	810	812	815	817	817	821	825	825	829	831	831	831	829	829	825	823	823	823	823	3779	3779	3779	3779	3738	3738	3738	3738	3738	3738	3698	3698	3698	3698	3738	3738	3698	3698	3698	3698	3659	3659	3659	3659	3659	3698	3698	0	0	0	0	0	0	0	0	0	0	0	0	0	0	0	0	0	0	0	0	0	0	0	0	6124	6124	6018	6018	5915	5915	5815	5815	5815	5719	0	5719	5815	5719	5719	5626	5626	5626	5626	5626	5535	5535	5535	5626	5626	0	0	0	0	0	0	0	0	0	0	5282	5282	5125	5050	5050	5050	4977	4977	4977	4977	4906	4906	4838	4838	4838	4838	4838	4771	4706	4706	4643	4521	4521	4521	4521	4643	4643	4643	4643	4643	4643	4581	4521	4521	4463	4463	4463	4463	4463	4463	4463	4406	4406	4406	4350	4296	4350	4296	4296	4296	4243	4243	4192	4192	4192	4192	4142	4142	0	3621	3621	3621	3621	3621	3583	3583	3583	3583	3546	3510	3510	3510	3510	0	0	0	0	0	0	0	0
4243	4243	4243	4243	4243	4243	4296	4296	4350	4296	4296	4296	4296	4296	4296	4296	4243	4243	4243	4296	4243	4296	4243	4243	4296	4296	4243	4243	4243	4243	4243	4243	4192	4192	4192	4243	4243	4243	4243	4243	4296	4243	4296	4243	4243	4192	4243	4192	4192	4192	4192	4243	4192	4192	4192	4192	4192	4192	4192	4192	4142	4192	4192	4192	4243	4243	4243	4243	4243	4192	4243	4243	4192	4192	4192	4142	4142	4142	4142	4142	4142	4142	4142	4142	4192	4192	4192	4192	4192	4243	4243	4142	4192	4192	4142	4142	4142	4142	4142	4142	4142	4142	4192	4192	4192	4192	4243	4243	4243	4243	4243	4243	4243	4192	4192	4192	4192	4192	4192	4192	4142	0	0	0	0	0	0	0	0	0	0	0	0	0	0	0	0	0	0	0	0	0	0	0	0	0	0	0	0	0	0	0	0	0	0	0	0	0	0	0	0	0	0	0	0	0	0	0	0	0	0	0	0	0	0	0	0	819	819	815	815	815	814	815	814	815	814	814	819	819	817	817	815	812	808	808	804	804	800	802	800	798	797	798	798	798	800	802	806	808	806	806	804	804	804	804	804	804	806	806	808	808	806	808	810	810	810	821	823	823	823	823	810	810	810	810	812	814	815	817	817	817	819	819	821	821	823	825	829	829	808	808	808	808	810	810	812	812	814	814	815	815	815	815	814	814	814	814	814	815	815	814	814	814	814	812	812	812	810	808	806	806	804	802	800	800	798	798	798	797	795	795	793	793	791	791	791	789	789	788	788	786	786	786	786	786	786	786	786	786	786	786	784	786	784	784	786	786	786	786	788	788	789	789	789	791	791	791	793	793	795	795	797	797	797	798	798	798	798	798	797	797	797	797	797	797	798	798	800	802	802	802	804	804	804	804	802	798	797	797	797	797	797	797	798	798	800	802	802	802	802	804	804	804	806	806	806	804	806	808	808	810	810	810	810	810	808	808	808	808	808	808	808	810	812	814	814	815	817	819	819	819	819	819	817	815	814	812	808	808	808	806	804	804	804	804	802	802	800	800	798	797	795	795	793	793	791	789	789	789	788	789	789	789	788	789	789	789	789	814	814	812	808	808	806	800	798	800	800	800	802	804	806	806	808	810	812	814	815	817	819	819	823	827	827	827	827	827	823	823	821	823	823	3738	3738	3738	3779	3738	3738	3698	3698	3698	3698	3698	3698	3698	3698	3698	3698	3698	3698	3698	3698	3659	3659	3659	3659	3659	3698	3698	0	0	0	0	0	0	0	0	0	0	0	0	0	0	0	0	0	0	0	0	0	0	0	0	0	0	6018	6018	5915	5915	5915	5815	5815	5719	5815	5719	5719	5719	5719	5626	5626	5719	5626	5626	5626	5626	5626	5626	0	0	0	0	0	0	0	0	0	0	5202	5202	5202	5125	5125	5050	5050	5050	4977	4977	4977	4906	4838	4838	4838	4838	4838	4771	4771	4706	4706	4706	4581	4581	4521	4521	4643	4706	4706	4706	4643	4643	4643	4581	4521	4463	4463	4463	4463	4463	4463	4463	4406	4406	4350	4350	4296	4350	4296	4296	4243	4192	4192	4243	4192	4192	4192	4192	4142	3341	3583	3583	3621	3583	3583	3583	3621	3583	3583	3546	3510	3510	3510	3510	0	0	0	0	0	0	0	0
4192	4243	4243	4243	4243	4243	4243	4296	4350	4296	4296	4296	4296	4296	4296	4296	4296	4296	4243	4243	4243	4296	4243	4243	4296	4296	4243	4243	4243	4243	4243	4243	4243	4243	4192	4243	4243	4243	4243	4243	4243	4243	4243	4192	4192	4192	4192	4192	4192	4192	4192	4243	4192	4192	4192	4192	4192	4192	4192	4192	4192	4192	4192	4192	4192	4243	4243	4243	4243	4192	4243	4243	4192	4192	4142	4142	4142	4142	4142	4142	4142	4142	4142	4192	4192	4192	4192	4243	4243	4243	4243	4192	4192	4192	4192	4142	4142	4192	4192	4192	4192	4192	4192	4192	4192	4192	4192	4243	4243	4243	4243	4243	4243	4192	4192	4192	4192	4142	4142	4142	0	0	0	0	0	0	0	0	0	0	0	0	0	0	0	0	0	0	0	0	0	0	0	0	0	0	0	0	0	0	0	0	0	0	0	0	0	0	0	0	0	0	0	0	0	0	0	0	0	0	0	0	0	0	0	0	0	817	817	815	814	814	812	814	812	812	812	810	812	815	815	814	812	810	806	806	802	798	797	798	797	795	795	795	795	795	797	797	797	804	804	802	800	802	802	804	804	804	806	808	808	808	806	808	808	808	808	810	821	817	833	810	808	808	808	810	810	812	815	815	817	817	817	819	819	821	823	823	823	804	806	806	808	808	808	810	810	812	812	812	814	812	812	812	812	810	812	812	812	814	814	814	814	814	812	812	810	810	808	808	806	804	802	802	800	798	798	798	797	795	795	793	793	793	791	791	791	789	789	788	788	786	786	786	786	786	784	786	786	786	786	786	784	784	784	784	786	786	786	786	786	788	789	789	789	789	791	791	791	793	793	795	795	797	797	797	797	797	797	797	797	791	793	793	795	795	797	798	800	800	800	800	802	802	802	802	798	797	795	795	793	795	793	795	795	797	798	798	800	800	802	802	802	804	804	804	804	804	804	806	804	804	806	806	808	808	806	804	806	806	806	806	804	806	808	810	812	814	815	815	817	817	817	817	815	814	812	810	808	806	806	804	804	802	802	802	800	802	798	798	797	797	795	793	793	791	789	789	788	788	788	786	788	786	786	788	788	788	777	808	808	806	806	804	800	797	797	797	797	798	800	802	804	806	806	808	810	812	812	814	814	814	815	817	821	823	823	823	819	819	819	819	819	819	3738	3738	3738	3738	3738	3698	3698	3698	3698	3698	3698	3698	3698	3698	3698	3659	3659	3698	3659	3659	3659	3659	3659	3659	3698	3659	0	0	0	0	0	0	0	0	0	0	0	0	0	0	0	0	0	0	0	0	0	0	0	0	0	0	0	0	5915	5915	5915	5915	5815	5815	5815	5815	5815	5719	5719	5719	5626	5719	5626	5626	5626	5626	5626	0	5626	0	0	0	0	0	0	0	0	0	5202	5282	5282	5125	5125	5050	5125	5125	5050	4977	4977	4906	4838	4838	4771	4771	4771	4771	4771	4706	4706	4643	4581	4706	4521	4706	4706	4706	4706	4706	4643	4643	4643	4581	4521	4463	4463	4463	4463	4406	4463	4406	4406	4350	4350	4296	4296	4350	4350	4296	4243	4192	4192	4243	4243	4243	4243	4142	4142	3341	3341	3373	3583	3583	3583	3583	3583	3583	3546	3546	3510	3510	3510	3510	0	0	0	0	0	0	0	0
4192	4192	4243	4243	4243	4243	4296	4296	4296	4296	4296	4296	4296	4296	4296	4296	4296	4296	4296	4296	4243	4296	4243	4243	4243	4296	4243	4243	4243	4243	4243	4243	4192	4192	4192	4243	4243	4243	4243	4243	4243	4243	4243	4192	4192	4192	4192	4192	4243	4192	4243	4243	4243	4192	4192	4192	4192	4192	4142	4142	4142	4192	4192	4192	4192	4243	4243	4243	4243	4243	4243	4192	4192	4142	4142	4093	4093	4093	4093	4142	4142	4142	4142	4192	4192	4192	4192	4243	4192	4243	4243	4142	4142	4192	4192	4142	4142	4192	4192	4192	4192	4192	4192	4192	4192	4192	4192	4243	4243	4243	4243	4243	4243	4192	4192	4192	4192	4192	4192	4192	0	0	0	0	0	0	0	0	0	0	0	0	0	0	0	0	0	0	0	0	0	0	0	0	0	0	0	0	0	0	0	0	0	0	0	0	0	0	0	0	0	0	0	0	0	0	0	0	0	0	0	0	812	812	810	810	810	808	812	810	810	810	808	808	808	808	808	806	806	806	808	810	808	806	804	802	800	798	797	797	797	795	793	793	793	791	795	795	793	798	800	798	798	798	800	802	802	802	804	806	808	808	806	806	808	808	806	806	806	808	808	808	806	806	808	808	810	810	814	815	815	817	817	817	819	819	821	821	821	804	804	804	806	808	808	810	810	812	812	812	812	810	810	810	810	810	810	810	810	810	812	810	812	812	812	810	808	808	808	806	806	804	802	802	800	798	798	797	797	795	795	793	793	791	791	789	789	788	788	786	786	786	786	786	786	784	784	786	786	786	786	784	784	786	786	784	786	786	786	786	786	788	788	789	789	789	791	791	791	793	793	793	795	795	795	795	795	795	795	791	791	791	791	793	793	795	795	797	798	798	798	798	800	802	800	800	795	793	791	791	793	793	793	793	795	797	798	798	798	798	800	800	800	802	802	802	802	800	802	802	802	802	802	802	804	804	804	802	804	804	804	804	802	802	804	806	808	810	812	814	814	814	815	815	814	812	810	808	806	804	804	804	802	798	797	797	795	797	798	797	795	795	793	793	791	789	788	788	788	786	786	786	786	784	784	784	786	777	777	777	802	802	802	800	797	795	795	795	795	797	797	800	802	804	804	806	808	808	810	810	810	810	812	812	810	812	817	815	814	808	808	812	812	808	3738	3738	3738	3738	3738	3738	3738	3738	3738	3698	3698	3698	3698	3698	3698	3659	3659	3659	3659	3659	3621	3659	3659	3659	3698	3659	3698	0	0	0	0	0	0	0	0	0	0	0	0	0	0	0	0	0	0	0	0	0	0	0	0	0	0	6018	6018	6018	5915	5915	5915	5815	5815	5915	5815	5719	5719	5626	5626	5719	5626	5626	5626	5626	5626	5626	0	0	0	0	0	0	0	0	0	0	5202	5202	5125	5202	5125	5125	5125	5125	5050	4977	4977	4906	4838	4838	4771	4771	4771	4771	4706	4706	4706	4706	4643	4706	4706	4706	4706	4706	4706	4706	4643	4643	4581	4521	4463	4463	4463	4463	4463	4463	4463	4406	4406	4350	4296	4296	4296	4296	4296	4243	4243	4192	4192	4243	4243	4192	4192	4142	4142	3373	3341	3373	3546	3546	3583	3583	3583	3583	3546	3546	3510	3510	3510	3510	0	0	0	0	0	0	0	0
4192	4192	4243	4243	4243	4296	4296	4296	4296	4350	4296	4296	4296	4296	4296	4350	4296	4296	4296	4243	4243	4296	4296	4243	4296	4296	4243	4243	4243	4243	4243	4192	4192	4192	4192	4243	4243	4243	4243	4243	4243	4243	4243	4192	4192	4192	4192	4192	4192	4192	4192	4192	4192	4192	4192	4192	4192	4192	4192	4142	4142	4192	4192	4192	4243	4243	4243	4243	4243	4243	4192	4192	4192	4142	4142	4093	4093	4093	4093	4142	4142	4142	4142	4192	4192	4243	4192	4192	4192	4192	4192	4142	4142	4192	4192	4142	4192	4192	4192	4192	4192	4192	4192	4192	4192	4192	4192	4192	4192	4243	4243	4192	4243	4192	4192	4192	4142	4142	4192	0	0	0	0	0	0	0	0	0	0	0	0	0	0	0	0	0	0	0	0	0	0	0	0	0	0	0	0	0	0	0	0	0	0	0	0	0	0	0	0	0	0	0	0	0	0	0	817	817	817	815	815	815	812	810	808	808	808	808	808	808	808	808	806	804	804	804	804	804	802	804	804	806	804	802	802	798	798	797	795	795	795	793	793	791	791	791	793	793	791	791	793	795	795	795	797	798	800	800	804	806	808	806	804	804	806	806	804	802	802	802	837	806	806	806	806	808	808	810	812	814	815	815	815	817	817	817	817	817	793	802	802	798	804	806	808	808	810	810	810	810	810	810	810	808	808	808	808	808	808	808	808	808	808	808	808	808	808	806	806	806	804	804	802	800	798	798	798	797	795	795	793	793	791	791	789	789	788	788	788	786	786	786	786	786	786	784	784	786	786	786	784	784	784	784	786	786	786	786	786	786	786	786	788	788	789	789	791	791	791	791	791	791	793	795	795	789	789	789	789	789	791	789	791	791	793	793	795	797	798	798	798	800	800	800	798	798	793	791	791	789	791	791	791	793	793	795	797	797	797	797	797	797	798	800	800	800	800	800	800	800	798	798	798	800	800	800	800	800	802	802	802	802	802	800	802	802	804	804	806	810	812	812	812	812	810	810	808	806	806	804	804	802	800	795	793	791	791	793	795	795	793	793	793	791	791	789	788	788	786	786	784	782	784	782	782	780	782	777	777	779	779	800	800	797	793	793	793	793	795	795	797	798	800	802	804	804	804	806	808	808	808	808	810	810	810	810	812	810	810	808	808	808	808	808	806	3698	3698	3698	3698	3698	3698	3698	3698	3698	3698	3698	3698	3698	3698	3659	3659	3698	3621	3659	3621	3659	3659	3659	3698	3659	0	0	0	0	0	0	0	0	0	0	0	0	0	0	0	0	0	0	0	0	0	0	0	0	0	0	6124	6124	6124	6018	6018	6018	6018	6018	5915	5915	5719	5815	5719	5626	5626	5626	5626	5626	5626	5626	5626	5626	5448	5364	5535	0	5448	5364	5364	0	0	0	5202	5202	5125	5202	5125	5125	5125	5125	5050	4977	4906	4906	4838	4838	4838	4771	4771	4771	4771	4706	4706	4706	4643	4643	4643	4643	4706	4706	4643	4581	4643	4581	4643	4521	4463	4463	4463	4463	4463	4463	4463	4406	4350	4296	4296	4296	4243	4296	4243	4243	4243	4243	4243	4243	4243	4192	4192	4142	4142	3373	3373	3373	3510	3546	3583	3583	3583	3583	3546	3546	3510	3510	3510	3510	0	0	0	0	0	0	0	0
4142	4192	4243	4243	4243	4296	4296	4296	4350	4350	4296	4350	4350	4296	4296	4350	4350	4296	4296	4296	4243	4296	4296	4243	4243	4243	4243	4243	4243	4243	4243	4192	4243	4192	4243	4243	4243	4243	4243	4243	4243	4243	4243	4243	4192	4192	4192	4192	4243	4192	4192	4192	4192	4192	4192	4192	4192	4192	4142	4142	4142	4192	4192	4192	4243	4243	4243	4243	4243	4243	4192	4192	4192	4192	4192	4142	4142	4142	4142	4192	4192	4192	4192	4192	4243	4243	4192	4243	4192	4243	4192	4142	4142	4192	4192	4142	4192	4192	4192	4243	4243	4192	4192	4192	4192	4192	4192	4192	4192	4192	4192	4192	4243	4192	4192	4192	4142	4192	4192	0	0	0	0	0	0	0	0	0	0	0	0	0	0	0	0	0	0	0	0	0	0	0	0	0	0	0	0	0	0	0	0	0	0	0	0	0	0	0	0	0	0	0	0	0	817	817	817	815	815	814	814	812	808	808	806	806	804	804	804	804	804	802	802	800	798	798	800	800	800	798	800	800	800	798	798	798	797	797	795	795	795	793	791	789	789	789	789	791	789	791	791	791	793	793	795	795	798	798	800	804	806	806	804	804	806	804	802	802	800	800	800	802	802	802	806	806	808	810	810	812	814	815	815	817	817	817	817	817	793	793	795	797	802	804	806	808	808	810	810	808	808	808	808	808	806	806	806	806	806	806	804	804	804	804	806	806	806	806	806	806	802	802	800	800	798	798	797	797	795	793	793	793	791	791	789	788	788	788	788	786	786	786	786	786	786	784	784	784	784	786	784	784	784	784	784	786	786	786	786	786	786	788	788	788	788	789	789	789	789	789	789	789	788	789	788	786	786	786	788	788	789	789	791	791	793	793	793	795	797	798	798	797	797	798	797	791	789	789	789	788	789	789	789	791	791	793	795	795	795	795	795	795	797	797	797	797	798	797	797	798	797	797	797	798	798	798	798	798	800	800	800	800	800	798	798	798	798	800	800	804	808	808	810	808	806	808	806	804	804	802	802	800	797	791	791	789	789	791	791	793	793	793	791	791	789	788	788	786	786	784	782	780	782	780	780	779	779	775	775	779	788	795	797	793	791	791	791	791	793	793	795	797	798	800	802	802	802	804	804	804	806	806	808	808	808	808	810	808	808	808	806	808	806	806	806	3659	3659	3659	3698	3698	3698	3698	3698	3659	3698	3698	3698	3698	3698	3659	3659	3698	3621	3698	3621	3659	3659	3659	3659	3659	3659	3621	0	0	0	0	0	0	0	0	0	0	0	0	0	0	0	0	0	0	0	0	0	0	0	0	6124	0	6018	6124	6124	6124	6018	6018	5915	5815	5815	5815	5719	5719	5719	5719	5719	5719	5626	5626	5626	5626	5448	5448	5535	5535	5448	5364	5364	5364	5282	5202	5202	5202	5202	5202	5125	5125	5125	5125	4977	4977	4977	4906	4906	4906	4838	4771	4771	4771	4771	4706	4706	4706	4643	4643	4643	4643	4643	4643	4643	4581	4581	4521	4521	4463	4463	4463	4463	4463	4463	4406	4406	4406	4350	4296	4296	4296	4296	4296	4243	4243	4243	4243	4243	4243	4243	4243	4243	4142	4142	4142	4142	3475	3510	3546	3583	3583	3583	3583	3546	3546	3510	3510	3510	3510	0	0	0	0	0	0	0	0
4142	4243	4243	4243	4296	4350	4350	4350	4350	4350	4296	4350	4296	4296	4296	4296	4296	4296	4296	4296	4243	4296	4296	4243	4243	4243	4243	4243	4243	4243	4192	4192	4243	4243	4243	4243	4243	4243	4243	4243	4243	4243	4243	4243	4243	4243	4243	4243	4243	4243	4192	4192	4192	4192	4192	4192	4192	4192	4192	4192	4192	4192	4192	4192	4243	4243	4243	4243	4243	4192	4192	4192	4192	4192	4192	4142	4142	4142	4192	4192	4192	4142	4142	4192	4192	4192	4192	4192	4192	4192	4192	4142	4142	4142	4142	4142	4142	4192	4192	4243	4192	4192	4192	4243	4192	4192	4192	4192	4192	4192	4192	4192	4192	4192	4192	4192	4192	4192	4192	0	0	0	0	0	0	0	0	0	0	0	0	0	0	0	0	0	0	0	0	0	0	0	0	0	0	0	0	0	0	0	0	0	0	0	0	0	0	0	0	0	0	0	0	0	815	815	815	815	814	812	812	810	806	804	804	804	804	804	802	804	802	802	800	798	798	798	798	798	798	798	798	798	798	798	798	797	797	797	795	795	795	791	789	789	789	789	789	789	789	789	789	791	791	793	793	795	797	797	797	802	804	804	802	800	802	802	800	800	798	798	798	800	800	800	802	804	806	808	810	812	814	814	815	817	817	817	817	789	793	793	795	797	800	802	802	804	806	808	808	808	808	808	806	806	806	804	804	804	804	804	802	800	800	802	802	802	804	802	804	802	800	800	800	798	798	798	797	795	795	793	793	791	791	791	789	788	788	786	786	786	786	784	784	784	786	784	784	784	784	784	784	784	784	784	784	784	786	786	786	786	786	786	788	788	788	789	789	789	789	789	788	788	786	786	786	784	786	786	786	788	789	789	791	791	793	793	793	795	797	797	797	795	793	791	789	786	786	786	786	786	788	789	789	789	791	791	793	793	793	791	793	793	793	793	793	793	795	795	795	797	795	795	795	797	797	797	797	797	798	797	797	797	797	797	797	797	797	797	798	798	800	804	806	806	804	804	804	804	802	802	798	797	793	791	789	789	789	789	789	789	789	791	789	789	789	788	786	786	784	782	782	780	780	780	780	779	777	775	775	779	779	789	793	789	789	788	789	789	791	793	795	797	798	800	800	800	802	802	802	802	804	806	806	806	808	808	808	808	806	806	806	806	806	804	800	800	3659	3659	3659	3659	3659	3659	3659	3621	3659	3698	3698	3698	3659	3659	3659	3698	3659	3659	3659	3621	3659	3659	3698	3659	3659	3621	0	0	0	0	0	0	0	0	0	0	0	0	0	0	0	0	0	0	0	0	0	0	0	0	0	0	6124	6124	6018	6124	6124	6018	5915	5719	5719	5719	5719	5719	5719	5719	5719	5719	5719	5626	5626	5626	5448	5535	5535	5535	5364	5364	5282	5282	5282	5282	5202	5202	5125	5202	5125	5125	5125	5125	4977	4977	4977	4906	4906	4906	4838	4771	4771	4771	4771	4706	4643	4643	4643	4706	4643	4706	4643	4706	4643	4581	4581	4581	4581	4463	4463	4406	4406	4463	4406	4406	4406	4406	4350	4296	4243	4243	4243	4243	4243	4243	4243	4243	4243	4243	4243	4192	4192	4142	4142	4142	3510	3510	3583	3583	3583	3583	3583	3583	3546	3546	3510	3510	3510	3510	0	0	0	0	0	0	0	0
4142	4192	4243	4243	4243	4296	4350	4350	4296	4296	4296	4350	4296	4296	4296	4296	4296	4350	4296	4296	4296	4296	4296	4296	4243	4243	4243	4243	4243	4243	4192	4243	4243	4243	4243	4243	4243	4243	4243	4243	4243	4243	4243	4243	4243	4243	4243	4243	4243	4243	4192	4192	4192	4192	4192	4192	4192	4192	4192	4192	4192	4192	4192	4192	4192	4192	4192	4192	4192	4192	4142	4192	4192	4192	4192	4142	4142	4142	4192	4192	4192	4192	4192	4192	4192	4243	4192	4192	4192	4192	4192	4142	4142	4142	4142	4142	4142	4192	4192	4192	4192	4192	4192	4192	4192	4192	4192	4192	4192	4192	4192	4192	4192	4243	4192	4192	4192	4192	4243	0	0	0	0	0	0	0	0	0	0	0	0	0	0	0	0	0	0	0	0	0	0	0	0	0	0	0	0	0	0	0	0	0	0	0	0	0	0	0	0	0	0	0	0	814	814	814	815	814	814	812	810	808	806	802	800	800	800	800	798	800	798	798	798	797	797	797	797	797	797	797	798	797	797	797	797	797	797	795	793	793	793	789	788	788	788	788	788	789	788	788	789	789	791	791	791	791	793	795	795	798	800	802	798	798	797	800	798	797	797	797	797	798	798	798	802	802	804	808	808	810	812	814	815	815	817	817	817	789	789	793	795	795	795	800	802	802	804	806	808	806	806	806	806	806	804	804	802	802	802	802	802	800	800	800	800	800	800	800	802	802	800	800	798	798	798	797	797	795	795	793	793	791	791	791	789	788	786	786	786	786	784	784	784	784	784	784	784	784	784	784	784	784	784	784	784	786	786	786	786	786	786	786	788	788	788	788	788	789	788	788	784	784	782	782	784	784	784	784	786	788	789	789	791	791	791	791	793	795	795	795	795	793	791	789	788	786	786	786	786	786	786	788	788	789	789	791	791	793	791	791	791	791	791	791	791	791	793	793	793	793	793	793	793	795	795	795	795	795	797	797	797	797	797	795	797	795	795	797	797	797	798	800	802	802	802	802	804	802	802	800	798	795	791	789	789	789	789	789	788	789	789	789	789	789	788	786	786	784	782	782	780	779	779	779	779	777	775	775	775	777	779	784	786	786	788	788	788	788	789	791	793	795	797	798	800	800	800	800	800	800	802	804	806	806	806	806	808	806	804	804	802	804	802	802	798	800	3583	3621	3621	3621	3659	3659	3659	3621	3621	3659	3659	3698	3659	3659	3659	3659	3659	3659	3659	3659	3659	3659	3698	3659	3659	3621	3621	0	0	0	0	0	0	0	0	0	0	0	0	0	0	0	0	0	0	0	0	0	0	0	0	0	0	0	6018	6018	6124	6018	5915	5719	5719	5719	5815	5719	5719	5719	5719	5719	5719	5626	5626	5626	5626	5626	5535	5448	5364	5282	5282	5202	5202	5202	5202	5202	5202	5202	5202	5125	5125	5125	4977	4977	4977	4906	4906	4906	4838	4838	4838	4771	4771	4706	4706	4706	4706	4706	4643	4643	4643	4706	4643	4643	4521	4581	4521	4463	4463	4406	4406	4406	4406	4406	4350	4406	4350	4243	4243	4243	4243	4243	4243	4243	4243	4243	4243	4243	4243	4192	4192	4142	4142	4142	3583	3583	3583	3583	3583	3621	3583	3583	3546	3546	3546	3510	3510	3510	0	0	0	0	0	0	0	0
4142	4192	4243	4243	4243	4243	4296	4296	4296	4296	4296	4296	4296	4296	4296	4296	4296	4296	4296	4296	4296	4296	4350	4296	4243	4243	4243	4243	4243	4243	4192	4243	4243	4243	4243	4243	4243	4243	4243	4243	4192	4243	4243	4243	4243	4243	4243	4243	4243	4243	4192	4192	4192	4192	4192	4192	4192	4192	4192	4192	4192	4192	4192	4192	4192	4192	4192	4192	4192	4192	4142	4192	4192	4192	4192	4142	4142	4142	4192	4192	4192	4192	4142	4192	4192	4192	4192	4192	4142	4142	4192	4142	4142	4142	4142	4142	4192	4192	4192	4192	4192	4243	4192	4243	4192	4192	4192	4192	4192	4192	4192	4192	4192	4192	4192	4142	4142	4192	0	0	0	0	0	0	0	0	0	0	0	0	0	0	0	0	0	0	0	0	0	0	0	0	0	0	0	0	0	0	0	0	0	0	0	0	0	0	0	0	0	0	0	0	0	812	812	812	814	814	812	812	810	806	804	798	797	797	797	797	795	797	797	795	795	795	795	795	795	795	795	795	797	797	797	795	795	795	795	793	791	789	789	788	786	786	786	786	788	788	788	788	788	788	789	789	789	791	793	795	795	797	797	798	797	795	795	797	797	797	795	795	795	797	798	798	800	800	804	806	806	808	810	812	814	815	817	788	788	788	789	791	793	793	795	798	800	800	802	804	804	804	802	802	802	802	802	802	802	802	802	800	800	798	798	798	798	798	800	798	800	800	798	798	798	798	797	795	795	795	795	793	793	791	791	791	789	788	788	786	786	784	784	784	784	784	784	784	782	784	784	784	784	784	784	784	786	786	786	786	786	786	786	786	786	786	786	786	786	786	784	780	780	780	780	780	782	784	784	784	786	788	789	789	791	791	791	791	791	791	791	793	791	791	789	784	784	784	784	784	784	784	784	786	786	788	788	788	789	791	791	789	789	789	791	789	789	789	789	791	791	791	791	791	793	793	793	795	795	795	795	795	795	795	795	795	795	795	795	795	795	797	797	797	798	798	800	800	802	800	800	798	797	793	791	789	789	788	788	789	788	788	788	788	788	788	788	786	784	782	780	780	779	779	777	777	777	775	775	775	775	777	779	780	782	784	786	786	788	788	788	789	791	793	795	797	798	798	798	798	798	798	798	798	800	802	804	802	804	804	802	802	798	802	798	800	798	800	800	806	3621	3621	3659	3659	3659	3621	3659	3621	3659	3698	3698	3659	3659	3659	3621	3659	3659	3621	3621	3659	3698	3698	3738	3698	0	0	0	0	0	0	0	0	0	0	0	0	0	0	0	0	0	0	0	0	0	0	0	0	0	0	0	6124	6124	6124	6124	6124	5915	5815	5719	5719	5719	5719	5719	5719	5719	5719	5626	5626	5626	5626	5448	5448	5535	5448	5364	5364	5202	5202	5202	5202	5202	5202	5202	5202	5125	5125	5202	5125	4977	4977	4977	4906	4906	4906	4838	4838	4838	4771	4643	4643	4643	4706	4643	4643	4643	4643	4643	4706	4643	4521	4463	4463	4463	4463	4463	4463	4406	4463	4406	4406	4350	4350	4350	4296	4296	4296	4296	4296	4296	4243	4296	4296	4296	4243	4243	4192	4192	4142	4142	4142	3621	3621	3621	3621	3621	3621	3621	3621	3583	3546	3546	3546	3510	3510	0	0	0	0	0	0	0	0
4192	4192	4243	4243	4243	4243	4296	4296	4243	4296	4243	4296	4243	4243	4243	4243	4296	4296	4296	4296	4296	4296	4296	4296	4243	4296	4243	4243	4243	4243	4243	4243	4243	4243	4243	4243	4296	4296	4243	4243	4243	4243	4243	4243	4243	4243	4243	4243	4243	4243	4192	4192	4192	4192	4192	4192	4192	4192	4192	4192	4192	4192	4192	4192	4192	4192	4192	4192	4192	4192	4192	4192	4192	4192	4192	4142	4142	4142	4192	4192	4192	4142	4142	4192	4142	4192	4142	4142	4142	4142	4192	4142	4142	4142	4142	4142	4142	4192	4142	4192	4192	4192	4192	4192	4192	4192	4192	4192	4192	4192	4192	4192	4192	4192	4192	4142	4142	4142	0	0	0	0	0	0	0	0	0	0	0	0	0	0	0	0	0	0	0	0	0	0	0	0	0	0	0	0	0	0	0	0	0	0	0	0	0	0	0	0	0	0	0	0	0	806	810	808	810	810	810	806	806	800	800	797	795	795	795	795	793	795	795	795	795	793	793	793	793	793	793	795	797	797	797	795	795	795	795	793	791	789	788	788	786	786	786	786	786	786	786	786	788	788	789	789	789	791	791	793	793	795	795	797	795	793	793	795	795	795	795	795	795	795	797	797	798	800	800	804	804	804	806	806	786	788	788	788	788	788	789	789	791	793	795	797	797	798	800	800	800	800	800	798	800	800	800	800	800	800	800	800	800	797	797	797	797	797	798	798	798	798	798	798	797	798	797	795	795	795	795	793	791	791	791	791	789	788	788	786	786	784	784	784	784	782	784	782	784	784	784	784	784	784	784	784	786	786	786	786	786	786	784	784	784	784	784	784	782	782	779	779	779	779	780	780	782	782	782	784	786	788	788	789	789	791	791	791	791	791	789	791	789	789	782	782	782	782	782	782	782	784	784	784	784	786	786	786	788	789	789	789	789	789	789	789	789	788	789	789	789	789	791	791	791	793	793	793	793	793	793	793	793	793	793	793	793	793	793	795	795	795	795	797	797	797	798	798	800	798	798	797	795	791	789	789	788	788	788	788	786	788	788	788	788	788	786	784	784	782	780	779	779	777	777	777	775	775	775	775	775	775	777	779	779	782	784	786	786	786	788	788	789	789	793	795	795	795	795	797	797	797	795	797	797	797	800	798	798	797	795	793	793	795	795	797	797	800	800	804	808	812	815	815	815	3738	3659	3659	3738	3698	3659	3659	3659	3659	3621	3659	3621	3621	3659	3659	3698	3738	3738	3738	0	0	0	0	0	0	0	0	0	0	0	0	0	0	0	0	0	0	0	0	0	0	0	0	0	0	0	0	6124	6124	6124	6018	6018	5915	5815	5815	5719	5719	5719	5719	5719	5719	5626	5626	5626	5626	5448	5448	5448	5448	5364	5364	5364	5282	5282	5282	5202	5202	5202	5202	5202	5125	5202	5125	4977	4977	4977	4906	4906	4906	4838	4838	4838	4706	4643	4706	4706	4706	4643	4643	4643	4643	4643	4643	4581	4521	4463	4463	4463	4463	4463	4463	4463	4463	4406	4406	4406	4406	4350	4296	4296	4296	4296	4296	4296	4243	4296	4296	4296	4243	4243	4192	4192	4142	4142	4142	4142	3659	3621	3621	3621	3621	3583	3621	3583	3510	3510	3510	3510	3510	0	0	0	0	0	0	0	0
4192	4192	4243	4243	4243	4243	4296	4296	4243	4243	4243	4243	4243	4243	4243	4243	4296	4296	4296	4296	4296	4296	4296	4296	4243	4243	4243	4243	4243	4243	4243	4243	4243	4243	4243	4296	4296	4296	4243	4243	4243	4192	4192	4192	4192	4192	4192	4192	4192	4192	4192	4192	4192	4192	4192	4192	4192	4192	4192	4192	4192	4192	4192	4192	4192	4192	4192	4192	4192	4192	4192	4192	4192	4192	4192	4142	4192	4192	4192	4192	4192	4142	4142	4142	4142	4142	4142	4142	4142	4142	4142	4142	4142	4142	4142	4142	4142	4142	4142	4192	4192	4192	4142	4192	4192	4192	4192	4192	4192	4192	4192	4142	4192	4192	4192	4142	4142	4192	0	0	0	0	0	0	0	0	0	0	0	0	0	0	0	0	0	0	0	0	0	0	0	0	0	0	0	0	0	0	0	0	0	0	0	0	0	0	0	0	0	0	0	0	0	804	804	806	806	802	804	802	802	798	797	793	793	791	791	791	791	793	793	793	793	791	791	791	791	791	791	793	795	795	795	795	795	795	793	793	789	788	786	786	784	786	784	784	786	786	784	786	786	786	788	789	789	789	791	791	793	793	795	795	793	793	793	793	793	793	793	793	793	793	795	795	798	798	800	802	802	802	806	806	786	786	786	786	786	786	788	788	791	793	793	793	795	795	795	797	797	797	798	797	797	797	798	798	798	798	798	800	798	797	797	797	795	795	797	797	797	798	797	797	798	798	797	795	795	795	793	793	791	791	791	789	789	788	788	786	786	784	784	784	784	782	784	784	784	784	784	784	784	784	784	784	784	786	786	786	786	786	784	784	784	784	784	782	779	779	779	777	777	777	779	780	782	782	782	784	786	786	788	789	789	791	791	789	789	789	789	789	788	782	780	780	780	780	780	782	782	782	782	784	784	784	786	786	786	788	788	786	788	788	788	788	788	788	788	788	788	789	789	789	789	791	791	791	791	791	791	791	791	791	791	791	791	791	791	793	793	793	793	795	795	795	797	797	797	797	797	795	793	791	789	788	788	786	786	788	786	786	786	788	788	788	786	784	782	780	779	779	779	777	775	775	775	773	773	773	773	775	775	777	779	780	782	784	784	786	786	786	788	788	789	791	793	793	793	795	795	795	793	795	795	795	797	795	795	795	793	791	793	793	793	793	797	798	800	802	806	810	814	815	815	814	3738	3698	3738	3738	3698	3659	3659	3659	3621	3659	3659	3621	3659	3659	3698	3698	3738	3698	0	0	0	0	0	0	0	0	0	0	0	0	0	0	0	0	0	0	6349	6235	6235	6124	6018	6124	6124	0	0	6124	6124	6124	6124	6124	6018	5915	5915	5719	5719	5719	5719	5719	5719	5626	5626	5535	5535	5626	5448	5448	5448	5448	5364	5364	5282	5282	5282	5282	5202	5202	5202	5202	5125	5125	5050	5050	4977	4977	4906	4906	4906	4906	4838	4906	4838	4706	4643	4706	4706	4706	4643	4643	4706	4643	4643	4706	4521	4463	4463	4463	4463	4463	4463	4463	4463	4463	4463	4406	4406	4406	4406	4350	4350	4296	4296	4296	4296	4243	4296	4296	4243	4243	4243	4192	4192	4142	4142	4093	3952	3659	3659	3621	3621	3621	3621	3621	3583	3510	3510	3510	3510	3510	0	0	0	0	0	0	0	0
4192	4192	4243	4243	4243	4243	4243	4243	4243	4243	4243	4243	4243	4243	4243	4243	4243	4296	4296	4296	4350	4350	4350	4296	4296	4296	4243	4243	4243	4243	4243	4243	4243	4243	4243	4243	4243	4296	4243	4243	4192	4192	4192	4192	4192	4192	4192	4192	4192	4192	4192	4192	4142	4142	4192	4192	4192	4192	4192	4192	4192	4192	4142	4142	4142	4142	4192	4142	4142	4142	4142	4192	4192	4192	4192	4142	4192	4192	4192	4192	4142	4142	4142	4142	4142	4142	4142	4142	4142	4142	4142	4142	4142	4142	4142	4142	4142	4142	4142	4142	4192	4192	4192	4192	4192	4192	4192	4192	4192	4192	4192	4142	4142	4192	4142	4142	4142	0	0	0	0	0	0	0	0	0	0	0	0	0	0	0	0	0	0	0	0	0	0	0	0	0	0	0	0	0	0	0	0	0	0	0	0	0	0	0	0	0	0	804	800	800	798	798	798	802	800	800	800	800	798	797	795	791	789	788	789	789	788	789	789	791	789	789	789	788	789	789	789	791	795	795	795	793	793	793	793	789	788	784	784	784	784	784	782	784	784	784	784	784	784	786	788	789	789	789	791	791	791	791	793	793	791	791	791	791	791	791	791	791	791	793	795	795	795	797	797	798	800	798	798	782	784	784	784	786	786	786	788	788	789	791	791	793	793	793	795	795	795	795	797	795	795	795	797	797	798	797	798	798	797	795	795	795	793	793	795	795	795	795	795	795	795	795	795	795	793	793	793	793	791	791	791	789	789	788	786	786	784	784	784	784	782	782	782	782	782	784	784	784	784	784	784	784	784	784	784	784	786	784	782	782	782	782	777	777	777	777	777	777	777	777	777	779	780	782	782	784	784	786	788	788	789	789	789	789	789	789	788	784	780	779	779	779	779	779	779	780	780	780	782	782	782	784	784	784	784	786	786	784	786	786	786	786	786	786	786	788	788	788	788	788	788	789	789	789	789	789	789	789	789	789	789	789	789	789	789	791	791	791	791	793	791	793	793	795	795	795	795	793	793	789	789	788	786	786	786	786	784	784	786	786	786	786	784	782	780	780	779	777	777	775	775	773	773	773	773	773	773	773	775	775	777	779	780	782	782	784	784	786	786	788	788	789	789	789	791	791	793	793	793	793	791	793	795	793	793	793	791	789	791	791	791	791	795	798	798	800	802	802	812	814	814	814	814	3738	3738	3738	3698	3698	3659	3659	3621	3659	3659	3659	3659	3659	3659	3698	3698	3621	3621	0	0	0	0	0	0	0	0	0	0	0	0	0	0	0	0	0	6349	6349	6235	6235	6124	6124	6124	0	0	6018	6018	5915	6018	6018	5915	5915	5815	5719	5815	5719	5719	5719	5626	5626	5626	5626	5626	5626	5364	5364	5448	5364	5364	5282	5282	5282	5282	5282	5282	5202	5202	5202	5202	5125	5050	5125	4977	4977	4906	4906	4906	4906	4906	4906	4838	4838	4706	4706	4706	4706	4706	4706	4643	4643	4643	4581	4521	4463	4463	4463	4463	4521	4521	4521	4463	4463	4463	4406	4406	4406	4350	4350	4350	4296	4296	4296	4296	4243	4296	4296	4243	4243	4243	4192	4192	4142	4142	4142	4142	3659	3659	3621	3621	3621	3621	3621	3621	3510	3510	3510	3510	3510	0	0	0	0	0	0	0	0
4192	4192	4192	4192	4192	4243	4243	4243	4243	4243	4243	4243	4243	4243	4243	4243	4243	4296	4296	4296	4350	4350	4296	4296	4296	4296	4243	4243	4243	4243	4243	4243	4243	4243	4243	4243	4243	4243	4243	4192	4192	4192	4142	4142	4192	4192	4142	4142	4142	4142	4142	4142	4142	4142	4192	4192	4142	4192	4192	4192	4192	4142	4142	4142	4142	4142	4142	4142	4142	4142	4142	4142	4192	4192	4192	4142	4192	4142	4192	4142	4142	4142	4142	4142	4142	4142	4142	4142	4142	4142	4142	4142	4142	4142	4142	4142	4142	4142	4142	4142	4142	4192	4192	4192	4192	4192	4192	4192	4243	4192	4142	4142	4142	4142	4142	4093	4093	0	0	0	0	0	0	0	0	0	0	0	0	0	0	0	0	0	0	0	0	0	0	0	0	0	0	0	0	0	0	0	0	0	0	0	0	0	0	0	0	0	0	800	800	798	797	795	797	798	798	798	800	798	798	797	795	789	788	788	788	786	786	788	788	789	788	788	786	784	784	784	788	786	793	793	793	791	791	789	789	788	786	784	784	784	782	784	784	784	784	784	782	782	784	784	786	788	789	789	791	791	791	791	791	791	789	789	789	789	789	789	789	789	791	793	793	793	795	795	795	797	797	795	795	782	782	782	784	784	786	786	786	788	788	789	789	791	793	793	793	793	795	795	795	795	795	795	795	795	797	797	797	797	795	793	793	793	793	793	793	795	793	795	795	795	795	795	793	795	793	793	793	793	791	791	791	789	788	788	786	784	784	784	784	782	782	780	782	782	782	782	782	784	784	784	784	784	784	784	784	784	784	784	780	782	780	773	775	775	775	775	777	777	777	777	777	779	780	782	782	784	784	786	788	788	789	789	789	789	788	788	784	780	779	777	777	777	777	777	777	779	779	780	780	782	782	782	784	784	784	784	784	782	784	784	784	784	784	784	784	786	784	786	786	786	788	788	788	788	788	788	788	788	786	788	788	788	788	788	788	789	789	789	789	791	789	791	791	791	793	793	793	791	791	789	788	786	784	782	784	784	782	782	784	784	786	784	782	780	780	779	779	777	775	775	773	773	773	772	772	772	772	773	773	773	775	777	779	780	780	782	784	784	786	784	786	786	786	788	788	789	791	791	791	791	789	791	793	793	791	793	789	789	789	789	789	789	795	798	798	800	800	800	802	806	808	810	810	810	808	3698	3698	3659	3659	3621	3621	3659	3659	3659	3659	3659	3659	3659	3698	3621	3621	3621	0	0	0	0	0	0	0	0	0	0	0	0	0	0	0	0	6349	6349	6235	6235	6124	6235	6235	6349	6349	5915	5915	5915	6018	5915	5915	5915	5815	5626	5719	5719	5719	5719	5719	5626	5626	5626	5626	5626	5364	5364	5364	5364	5282	5282	5202	5202	5282	5282	5282	5282	5282	5282	5202	5202	5050	5050	5050	4977	4906	4906	4906	4906	4906	4906	4906	4838	4706	4706	4706	4706	4706	4706	4643	4643	4643	4581	4521	4521	4463	4463	4463	4521	4521	4521	4521	4463	4463	4463	4406	4350	4350	4350	4350	4296	4296	4296	4296	4296	4296	4296	4243	4243	4243	4192	4192	4142	4142	4142	3621	3621	3621	3621	3621	3621	3621	3621	3621	3510	3510	3510	3510	3510	0	0	0	0	0	0	0	0
4192	4192	4192	4192	4192	4192	4243	4243	4243	4243	4243	4243	4243	4243	4243	4192	4243	4243	4243	4243	4296	4296	4296	4296	4296	4296	4243	4243	4243	4243	4243	4243	4243	4243	4243	4243	4243	4243	4192	4192	4192	4192	4192	4192	4192	4142	4142	4142	4142	4142	4142	4142	4142	4142	4142	4192	4142	4192	4192	4192	4192	4142	4142	4142	4142	4142	4142	4142	4142	4142	4142	4142	4192	4192	4192	4142	4142	4142	4142	4142	4142	4142	4142	4142	4142	4142	4142	4192	4142	4192	4192	4192	4142	4142	4142	4142	4142	4142	4142	4142	4142	4192	4142	4192	4192	4192	4192	4192	4243	4192	4142	4142	4142	4142	0	0	0	0	0	0	0	0	0	0	0	0	0	0	0	0	0	0	0	0	0	0	0	0	0	0	0	0	0	0	0	0	0	0	0	0	0	0	0	0	0	0	0	0	0	800	798	798	797	793	793	795	797	797	797	795	795	793	791	788	786	786	786	784	784	784	784	786	786	784	782	780	780	782	782	782	782	784	788	788	788	786	784	784	784	782	782	782	782	782	782	782	782	782	782	782	782	782	784	786	788	789	789	789	789	789	789	789	788	788	788	788	788	788	788	789	789	791	793	793	793	793	793	793	795	791	784	780	780	780	782	784	784	784	784	786	788	789	789	789	791	791	793	793	793	793	793	793	793	793	793	795	795	795	795	795	795	791	791	791	791	791	791	793	793	793	793	793	793	793	793	793	793	793	793	791	791	791	789	789	788	786	786	784	784	782	782	782	782	780	780	780	782	782	782	782	784	784	784	784	784	784	784	782	782	780	775	777	775	772	772	773	775	775	775	775	777	777	777	779	780	782	782	784	786	786	786	788	788	788	788	786	786	784	782	777	777	777	775	775	775	775	777	777	777	779	780	780	780	782	782	782	782	784	784	782	782	782	782	782	782	782	782	782	782	784	784	786	786	786	788	786	786	786	786	786	784	786	786	786	784	784	784	784	786	784	786	786	788	788	788	788	789	789	789	789	789	788	786	784	782	782	780	782	779	780	782	784	784	784	782	780	780	779	777	775	775	773	773	772	772	772	772	772	772	772	773	773	773	775	779	780	780	780	782	784	784	784	784	784	784	786	786	786	788	788	789	789	788	789	791	791	791	791	788	788	788	788	788	788	788	800	798	798	800	800	800	804	804	806	808	808	808	808	3659	3659	3659	3621	3621	3659	3659	3659	3659	3659	3659	3659	3659	3621	3583	3583	0	0	6853	0	0	0	0	0	0	0	0	0	0	0	0	6349	6349	6349	6349	6349	6235	6349	6349	6349	0	0	6018	5915	5915	5915	5915	5915	5719	5719	5719	5719	5719	5719	5626	5626	5626	5626	5626	5535	5364	5364	5535	5282	5282	5202	5202	5202	5282	5282	5282	5282	5282	5282	5282	5202	5125	5050	4977	4977	4906	4906	4906	4906	4906	4906	4838	4838	4706	4706	4706	4706	4706	4706	4706	4643	4643	4643	4581	4581	4521	4463	4521	4521	4521	4521	4463	4463	4463	4463	4406	4406	4406	4350	4406	4350	4296	4296	4296	4296	4296	4243	4243	4243	4192	4192	4192	4142	4093	4093	3738	3659	3659	3621	3621	3621	3621	3621	3621	3546	3510	3510	3510	3510	0	0	0	0	0	0	0	0
4192	4142	4192	4192	4142	4192	4192	4243	4192	4243	4243	4243	4243	4243	4192	4192	4243	4243	4192	4192	4243	4243	4243	4296	4296	4296	4243	4243	4243	4243	4243	4243	4243	4243	4243	4243	4243	4192	4192	4192	4192	4192	4142	4142	4142	4142	4142	4142	4142	4142	4142	4142	4142	4093	4142	4142	4142	4142	4192	4142	4142	4142	4142	4142	4142	4093	4142	4142	4142	4142	4142	4142	4192	4192	4192	4142	4142	4142	4142	4142	4142	4142	4093	4093	4142	4142	4142	4192	4142	4142	4192	4192	4142	4142	4142	4142	4142	4142	4142	4142	4192	4192	4142	4142	4192	4192	4192	4192	4243	4192	4142	4142	4142	4142	0	0	0	0	0	0	0	0	0	0	0	0	0	0	0	0	0	0	0	0	0	0	0	0	0	0	0	0	0	0	0	0	0	0	0	0	0	0	0	0	0	0	0	0	0	798	798	795	795	791	789	789	791	791	789	791	791	791	791	786	784	784	784	784	782	780	780	782	780	780	779	779	777	779	780	780	782	782	784	786	786	784	784	782	782	782	780	782	780	782	782	782	782	782	782	780	782	782	782	784	786	788	788	788	789	788	788	788	786	786	786	786	786	788	788	788	788	789	791	791	793	793	793	793	791	786	780	780	780	779	780	782	782	782	784	786	786	788	788	788	789	789	791	791	791	791	791	793	793	793	793	793	791	793	793	791	793	789	791	789	791	789	789	789	791	791	791	791	791	793	793	793	791	791	791	791	791	791	789	788	788	786	784	784	784	782	782	782	782	780	780	780	782	782	782	782	782	782	782	782	782	782	782	780	777	773	770	772	772	770	772	772	773	773	775	775	775	777	777	777	780	782	782	784	784	784	786	786	786	784	784	782	784	780	777	777	775	775	775	775	775	775	775	775	777	777	779	779	780	780	780	782	782	782	782	780	780	780	780	780	780	780	780	780	780	780	782	782	782	784	784	784	784	784	784	784	782	784	782	782	782	782	782	782	784	782	782	782	784	784	786	784	784	786	786	786	786	786	784	782	782	780	779	779	775	777	779	780	782	782	780	780	779	779	777	775	773	772	772	772	772	772	770	770	770	772	772	772	773	775	777	779	779	780	780	782	782	782	782	782	782	782	782	782	782	784	784	786	786	788	788	789	789	789	788	786	786	786	786	786	786	797	797	797	798	798	797	800	800	804	806	806	806	0	3659	3659	3659	3621	3621	3659	3621	3621	3621	3659	3659	3621	3659	3583	3583	6853	6853	6853	6853	6720	6853	0	6720	0	0	0	0	0	0	0	0	6349	6349	6349	6349	6349	6235	6349	6349	6124	6124	6018	6018	5915	5915	6018	6018	5915	5719	5626	5626	5719	5719	5719	5626	5626	5719	5626	5626	5535	5364	5282	5282	5282	5282	5202	5125	5202	5282	5282	5282	5282	5282	5282	5282	5202	5125	5050	4977	4977	4906	4906	4906	4906	4906	4906	4838	4838	4706	4706	4706	4706	4706	4706	4706	4643	4643	4643	4581	4581	4521	4521	4521	4521	4521	4521	4463	4463	4463	4463	4406	4406	4406	4406	4406	4350	4296	4243	4243	4243	4296	4243	4243	4243	4243	4192	4192	4142	4142	3738	3738	3659	3659	3659	3621	3621	3621	3621	3621	3546	3510	3510	3510	3510	0	0	0	0	0	0	0	0
4192	4142	4192	4142	4142	4142	4192	4192	4192	4192	4192	4243	4243	4192	4192	4192	4192	4192	4192	4192	4192	4243	4243	4243	4243	4296	4243	4243	4192	4192	4243	4243	4243	4192	4192	4192	4192	4192	4192	4192	4142	4142	4142	4142	4142	4142	4142	4142	4142	4142	4093	4093	4142	4142	4142	4142	4142	4142	4142	4142	4142	4142	4142	4142	4093	4093	4093	4142	4142	4142	4142	4142	4192	4192	4243	4142	4142	4142	4142	4142	4142	4093	4093	4093	4142	4142	4142	4192	4142	4142	4192	4192	4142	4142	4142	4142	4142	4142	4142	4142	4142	4142	4142	4142	4192	4192	4192	4192	4192	4192	4142	4142	0	0	0	0	0	0	0	0	0	0	0	0	0	0	0	0	0	0	0	0	0	0	0	0	0	0	0	0	0	0	0	0	0	0	0	0	0	0	0	0	0	0	0	0	0	0	0	797	795	793	791	789	786	786	784	784	784	786	786	786	788	784	784	782	782	780	780	779	779	779	777	779	779	777	777	779	780	780	780	780	782	784	784	782	782	782	780	780	780	780	780	780	780	780	780	780	780	780	780	780	782	784	784	786	786	786	788	786	784	784	782	784	784	784	784	786	786	786	788	788	789	789	791	791	791	791	791	780	779	779	779	779	779	780	780	780	782	784	786	788	788	788	788	788	788	788	789	789	789	791	791	791	791	791	789	791	791	789	789	788	789	789	789	789	789	789	789	789	791	791	791	791	791	791	791	789	789	789	789	789	788	788	786	784	784	782	782	782	782	782	782	780	780	780	782	782	782	782	782	782	782	782	780	779	779	777	772	772	770	770	770	770	770	772	772	773	775	775	775	777	777	779	780	782	782	782	782	784	784	784	784	782	782	782	782	777	775	775	773	773	773	773	773	773	773	773	775	775	777	779	779	779	780	780	780	780	782	780	780	780	780	780	780	780	780	780	780	780	780	780	780	780	782	782	782	782	782	782	780	780	780	780	780	780	779	779	780	780	780	780	782	784	784	784	784	784	784	784	784	782	782	780	780	779	777	777	773	775	775	779	780	780	780	779	779	777	775	773	773	772	772	772	770	770	770	770	768	772	772	772	772	773	777	777	779	779	780	780	782	780	780	780	780	782	782	782	782	782	782	782	784	784	786	788	788	788	786	784	782	782	784	784	784	786	791	795	797	797	793	797	795	797	804	802	802	798	802	3659	3659	3659	3621	3659	3621	3621	3621	3659	3621	3621	3621	3583	3583	6853	6853	6853	6992	6853	6853	6853	6853	6720	0	0	0	0	0	0	0	6468	6468	6349	6349	6235	6124	6235	6235	6124	6124	6018	6018	5915	5915	5815	5915	5815	5719	5626	5626	5626	5626	5626	5626	5626	5626	5535	5535	5448	5448	5448	5448	5364	5364	5282	5282	5202	5282	5202	5282	5282	5282	5282	5282	5202	5125	5050	4977	4977	4906	4906	4906	4906	4838	4838	4771	4771	4706	4706	4706	4706	4706	4706	4706	4643	4643	4643	4581	4581	4521	4521	4521	4521	4521	4521	4463	4463	4463	4463	4406	4406	4406	4406	4406	4350	4243	4243	4243	4243	4243	4243	4243	4243	4243	4192	4192	4142	3998	3998	3779	3698	3698	3659	3659	3621	3621	3621	3621	3583	3546	3546	3510	3510	0	0	0	0	0	0	0	0
4192	4142	4192	4142	4142	4142	4142	4192	4192	4192	4192	4192	4192	4192	4142	4142	4142	4192	4192	4192	4192	4243	4243	4243	4243	4296	4243	4243	4192	4192	4243	4243	4192	4192	4192	4192	4192	4192	4192	4192	4142	4142	4142	4142	4142	4142	4142	4142	4142	4142	4142	4142	4142	4142	4142	4142	4142	4142	4142	4142	4142	4142	4142	4142	4093	4093	4093	4093	4093	4093	4093	4093	4142	4192	4243	4192	4192	4142	4142	4142	4142	4093	4093	4093	4142	4142	4142	4192	4192	4192	4192	4192	4142	4142	4142	4093	4142	4093	4142	4142	4142	4142	4142	4142	4142	4142	4142	4142	4142	4142	4142	4093	0	0	0	0	0	0	0	0	0	0	0	0	0	0	0	0	0	0	0	0	0	0	0	0	0	0	0	0	0	0	0	0	0	0	0	0	0	0	0	0	0	0	0	0	0	0	0	793	791	789	789	788	786	784	782	782	782	784	782	782	780	780	782	780	780	779	779	777	777	777	777	777	777	777	777	777	779	779	779	780	780	782	782	782	780	780	780	779	779	779	779	779	779	779	780	780	780	779	780	780	780	782	782	784	784	784	784	784	782	782	782	782	782	782	782	784	786	786	786	786	788	788	788	788	788	782	779	779	779	779	779	777	779	779	780	780	780	782	784	786	786	786	788	788	788	788	788	788	788	789	789	789	788	789	788	789	788	788	788	786	788	788	788	788	788	788	788	788	788	788	788	789	789	789	789	789	789	788	789	788	788	786	786	784	784	782	782	780	782	782	780	780	780	780	782	782	782	782	782	782	782	780	777	772	772	770	770	770	768	770	770	770	770	770	772	773	775	775	775	777	777	779	780	780	782	782	782	782	782	782	784	780	780	779	777	775	772	772	772	772	772	772	772	772	773	773	773	775	775	777	777	779	779	780	779	780	780	779	779	779	779	779	779	779	779	779	779	779	779	779	779	780	780	780	780	780	780	780	780	779	779	779	779	779	779	777	779	779	780	780	782	782	782	782	782	782	782	782	782	782	780	780	779	777	777	775	773	773	773	777	779	779	779	779	777	777	775	773	772	770	770	770	770	770	768	768	768	768	770	770	772	773	775	777	777	779	779	780	780	780	779	780	780	780	780	780	780	780	780	780	782	782	782	784	784	784	782	780	780	780	780	782	782	782	786	791	793	793	791	793	791	793	793	800	798	798	802	802	802	3659	3659	3659	3621	3621	3621	3659	3621	3621	3583	3583	3546	3546	6992	6992	6992	6992	6853	6992	6853	6720	6592	6468	0	0	0	0	0	0	6349	6235	6235	6235	6235	6235	6235	6124	6124	6124	6018	6018	6018	5815	5915	5815	5815	5719	5719	5626	5626	5626	5626	5535	5535	5535	5535	5535	5448	5448	5448	5448	5364	5364	5282	5364	5282	5282	5282	5282	5282	5364	5364	5282	5125	5125	4977	4977	4906	4906	4906	4906	4906	4838	4771	4771	4771	4706	4706	4706	4706	4706	4643	4643	4643	4643	4643	4581	4521	4521	4521	4463	4521	4463	4406	4406	4463	4406	4406	4406	4406	4406	4406	4350	4243	4243	4296	4243	4243	4243	4243	4192	4192	4192	4192	4142	4142	3821	3821	3738	3698	3659	3659	3621	3583	3621	3583	3583	3546	3510	3510	3510	0	0	0	0	0	0	0	0
4142	4142	4142	4142	4093	4142	4142	4192	4192	4192	4192	4192	4192	4192	4192	4192	4192	4192	4192	4192	4243	4243	4243	4243	4296	4296	4243	4243	4192	4192	4243	4192	4192	4192	4192	4192	4192	4192	4192	4142	4142	4142	4142	4142	4142	4142	4142	4142	4142	4142	4142	4142	4142	4142	4142	4142	4142	4142	4142	4142	4142	4142	4142	4142	4093	4045	4093	4142	4142	4093	4093	4093	4142	4142	4192	4142	4192	4142	4142	4142	4142	4142	4093	4093	4142	4142	4142	4192	4142	4192	4192	4192	4142	4142	4142	4093	4142	4142	4142	4142	4142	4142	4142	4142	4142	4142	4142	4142	4142	4142	4093	4093	0	0	0	0	0	0	0	0	0	0	0	0	0	0	0	0	0	0	0	0	0	0	0	0	0	0	0	0	0	0	0	0	0	0	0	0	0	0	0	0	0	0	0	0	0	793	791	791	789	788	786	784	784	782	780	777	775	775	775	775	777	779	780	779	779	777	777	777	775	775	775	775	775	775	775	775	777	777	779	779	780	780	782	780	780	780	775	779	777	777	777	777	777	777	777	779	779	777	779	779	780	780	780	782	782	782	782	782	780	782	780	780	782	780	782	784	784	786	786	786	786	786	788	786	784	780	775	775	777	777	777	777	777	779	779	779	780	780	782	784	784	786	786	786	788	786	788	788	788	786	786	786	784	788	786	786	788	786	786	784	786	786	786	786	786	786	786	786	786	786	786	786	788	788	788	788	788	788	788	788	786	786	786	784	782	780	782	780	780	780	780	780	782	782	782	782	780	782	784	780	779	775	768	767	768	768	770	770	768	768	768	768	768	770	770	772	773	775	775	777	777	777	779	780	780	782	780	782	782	782	782	779	779	775	775	775	770	770	770	768	768	768	768	770	770	770	772	773	775	775	775	777	777	779	777	779	779	777	777	777	777	777	777	777	777	777	777	777	777	777	779	779	779	779	779	779	779	779	779	777	777	777	777	777	777	777	777	777	779	779	780	780	780	782	780	782	782	780	780	780	780	779	777	777	775	775	772	773	773	775	777	777	779	777	777	775	773	772	772	770	770	770	768	768	768	767	767	767	768	768	770	773	777	779	777	779	779	779	779	779	779	779	779	779	780	780	779	780	780	780	780	780	780	782	782	782	780	779	779	777	779	780	780	782	784	789	789	791	791	791	789	791	793	797	795	795	798	798	800	798	3621	3621	3621	3621	3621	3621	3621	3621	3583	3583	3583	6992	6992	6992	6853	6853	6853	6992	6853	6853	6720	0	0	0	0	0	0	0	6349	6235	6235	6235	6235	6235	6235	6235	6235	6124	6018	6018	6018	5719	5719	5815	5815	5719	5626	5626	5626	5626	5535	5535	5535	5535	5535	5535	5448	5448	5448	5535	5364	5364	5364	5364	5202	5202	5202	5202	5282	5282	5364	5282	5202	5125	5050	4977	4906	4906	4977	4906	4906	4838	4771	4771	4771	4706	4706	4706	4706	4706	4706	4643	4643	4643	4581	4581	4521	4521	4521	4463	4463	4463	4406	4406	4406	4406	4406	4406	4406	4406	4406	4350	4243	4296	4296	4243	4243	4243	4243	4192	4192	4192	4192	4142	4142	3821	3821	3779	3659	3659	3621	3621	3583	3583	3583	3546	3546	3510	3510	3510	0	0	0	0	0	0	0	0
4142	4142	4192	4142	4142	4142	4142	4192	4192	4192	4192	4192	4192	4192	4192	4192	4192	4192	4192	4192	4243	4243	4243	4243	4296	4296	4243	4243	4192	4192	4192	4192	4192	4192	4192	4192	4142	4142	4142	4142	4142	4142	4142	4142	4142	4142	4142	4142	4142	4142	4142	4142	4142	4142	4142	4142	4192	4192	4192	4192	4192	4142	4142	4142	4093	4093	4093	4142	4142	4093	4093	4093	4142	4142	4192	4192	4192	4192	4192	4192	4142	4093	4093	4093	4142	4142	4142	4192	4192	4192	4243	4243	4192	4142	4142	4093	4142	4142	4142	4142	4142	4142	4142	4142	4142	4142	4142	4142	4142	4093	4093	4045	3952	0	0	0	0	0	0	0	0	0	0	0	0	0	0	0	0	0	0	0	0	0	0	0	0	0	0	0	0	0	0	0	0	0	0	0	0	0	0	0	0	0	0	795	793	793	791	789	789	786	784	784	782	780	779	775	777	773	773	773	775	773	779	779	777	777	777	775	775	775	775	775	775	775	775	775	775	775	777	777	779	780	780	780	779	779	777	777	777	777	775	775	775	775	777	777	777	777	779	779	779	780	779	780	780	780	780	780	780	780	780	780	780	780	780	782	784	784	784	784	784	786	786	786	780	775	775	773	775	775	775	775	777	777	779	779	779	779	780	782	782	782	784	784	786	786	786	786	784	784	784	784	784	784	784	784	784	786	784	782	784	784	784	784	784	784	784	786	784	786	786	786	786	786	786	786	786	786	786	786	786	786	784	784	782	780	780	780	780	780	780	780	782	782	782	782	784	784	784	784	765	765	767	765	767	768	768	768	768	768	768	768	768	770	770	772	773	775	775	775	777	777	777	779	779	780	780	780	782	780	779	777	775	775	772	770	768	768	768	768	768	768	768	768	768	770	770	770	773	773	775	775	777	777	777	777	777	775	775	775	775	775	775	777	775	775	775	775	775	775	775	775	777	777	777	777	777	777	777	775	775	775	775	775	775	775	775	775	777	777	779	779	780	780	780	780	780	780	780	779	779	777	777	775	775	773	772	772	772	773	775	775	777	777	775	773	773	772	770	770	768	768	768	768	767	767	765	767	767	767	768	772	775	777	777	777	777	777	779	777	777	777	779	779	779	779	779	779	779	779	780	780	780	780	780	780	777	777	775	775	775	777	777	779	782	786	788	789	788	788	788	788	786	789	791	791	795	795	797	797	3621	3621	3621	3621	3621	3621	3659	3621	3621	3583	3583	6992	6853	6853	6720	6720	6720	6853	6720	6592	6592	0	0	0	0	0	0	0	6349	6235	6235	6235	6235	6235	6349	6235	6235	6235	6124	6018	6124	6018	5915	5815	5815	5719	5626	5626	5626	5626	5535	5535	5448	5448	5448	5448	5448	5448	5448	5448	5364	5364	5364	5282	5364	5125	5202	5202	5202	5282	5364	5282	5202	5125	5125	4977	4977	4977	4977	4906	4906	4838	4771	4771	4771	4771	4706	4706	4706	4706	4706	4643	4643	4643	4643	4643	4581	4581	4581	4521	4521	4463	4406	4406	4406	4350	4406	4406	4350	4406	4406	4406	4350	4296	4296	4243	4243	4243	4192	4192	4192	4192	4192	4142	4142	3821	3821	3779	3659	3659	3621	3583	3621	3583	3583	3546	3546	3510	3510	3510	0	0	0	0	0	0	0	0
4142	4142	4142	4142	4142	4142	4142	4142	4192	4192	4192	4192	4192	4192	4192	4192	4192	4192	4192	4192	4243	4243	4243	4243	4243	4296	4243	4243	4192	4192	4192	4192	4192	4192	4192	4192	4142	4142	4142	4142	4142	4142	4142	4142	4142	4142	4142	4142	4142	4142	4142	4142	4142	4142	4142	4142	4142	4142	4142	4142	4142	4142	4142	4142	4093	4093	4093	4142	4093	4093	4142	4142	4142	4192	4192	4192	4243	4192	4192	4192	4142	4093	4093	4093	4093	4093	4142	4192	4142	4192	4192	4192	4192	4142	4142	4093	4142	4142	4142	4142	4142	4142	4142	4142	4142	4142	4142	4142	4142	4093	4093	0	0	0	0	0	0	0	0	0	0	0	0	0	0	0	0	0	0	0	0	0	0	0	0	0	0	0	0	0	0	0	0	0	0	0	0	0	0	0	0	0	0	0	0	795	793	791	789	788	788	786	784	782	782	779	777	775	775	773	772	772	773	772	775	777	777	775	775	775	775	775	773	773	773	773	773	773	775	775	777	777	777	779	779	779	777	777	777	775	775	775	775	775	775	775	775	775	777	775	777	779	779	779	779	779	780	780	779	779	779	779	779	779	780	780	780	782	784	784	784	782	784	784	784	782	775	773	773	773	773	775	775	775	775	775	777	777	779	779	780	780	782	782	782	784	784	784	782	782	782	782	782	782	782	782	782	782	784	784	782	782	782	782	782	784	782	784	784	784	784	784	784	784	786	786	786	786	786	786	786	786	784	784	784	782	782	780	780	779	779	779	779	780	782	782	784	784	784	761	761	763	761	765	765	765	765	765	767	768	767	767	768	768	768	768	770	772	773	773	775	775	775	777	777	777	779	779	779	779	780	779	777	775	773	770	768	767	767	768	768	767	767	768	768	768	768	768	768	770	772	772	772	773	775	775	775	775	775	775	775	775	775	775	775	775	775	775	775	775	775	775	775	775	775	775	775	775	775	775	775	775	775	775	775	773	773	773	773	773	775	775	777	777	779	779	779	779	779	779	779	779	777	777	775	775	773	773	772	772	772	772	773	773	775	775	773	773	772	770	770	768	768	768	767	767	767	765	765	765	765	765	767	768	773	775	775	775	775	775	777	775	775	775	777	777	777	777	777	777	779	779	779	779	779	779	779	777	775	775	773	773	773	773	775	777	779	782	784	786	786	784	786	786	786	786	789	791	793	793	795	795	795	3583	3583	3583	3621	3621	3621	3621	3583	3583	3583	0	0	0	6720	0	0	0	6592	6592	6468	0	0	6468	6468	6235	6235	6124	6124	6235	6124	6235	6124	6124	6235	6235	6235	6235	6124	6124	6124	6018	5915	5815	5815	5815	5719	5626	5626	5626	5626	5535	5535	5535	5448	5448	5448	5448	5448	5448	5364	5364	5282	5282	5202	5125	5202	5202	5202	5282	5282	5282	5202	5125	5050	4977	4977	4977	4977	4906	4906	4838	4771	4771	4771	4771	4706	4706	4706	4706	4643	4643	4643	4643	4581	4581	4581	4581	4581	4521	4581	4521	4463	4463	4406	4350	4406	4406	4350	4406	4406	4350	4350	4350	4296	4243	4243	4243	4243	4192	4192	4192	4192	4192	4142	4142	4142	3659	3659	3659	3621	3583	3583	3546	3583	3546	3546	3510	3510	3510	0	0	0	0	0	0	0	0
4142	4142	4192	4142	4142	4142	4142	4192	4192	4192	4192	4192	4192	4142	4192	4142	4192	4192	4192	4192	4192	4192	4192	4243	4243	4243	4192	4192	4192	4192	4192	4192	4192	4192	4192	4192	4142	4192	4192	4192	4192	4192	4142	4142	4192	4142	4142	4192	4142	4192	4192	4142	4142	4142	4142	4142	4142	4142	4142	4192	4192	4142	4142	4142	4093	4093	4093	4093	4093	4093	4093	4142	4142	4192	4192	4192	4243	4243	4192	4142	4142	4142	4093	4093	4093	4093	4142	4142	4142	4142	4142	4142	4142	4142	4142	4093	4142	4142	4142	4142	4142	4142	4142	4142	4142	4142	4142	4093	4093	4093	4045	0	0	0	0	0	0	0	0	0	0	0	0	0	0	0	0	0	0	0	0	0	0	0	0	0	0	0	0	0	0	0	0	0	0	0	0	0	0	0	0	0	0	0	793	793	791	791	789	788	786	784	782	782	780	779	777	775	773	773	772	770	770	770	770	775	775	775	775	775	775	773	773	773	773	773	773	772	773	773	775	775	777	777	777	777	775	775	775	775	775	775	773	773	775	775	775	775	775	775	777	777	777	779	779	779	779	779	779	777	777	779	777	779	779	779	779	780	782	782	782	782	782	782	780	773	773	772	772	772	772	773	773	773	773	775	775	777	777	779	779	780	780	780	782	782	782	782	782	782	782	780	780	780	780	780	780	780	780	782	780	780	780	780	780	782	780	782	782	782	782	782	784	784	784	784	784	786	784	784	784	784	784	784	784	782	782	780	780	779	780	779	779	779	782	784	784	784	761	761	761	763	761	763	763	763	763	765	765	767	767	767	768	768	768	768	770	770	772	773	773	775	775	777	777	777	777	777	779	779	779	777	775	773	770	770	768	765	765	763	767	765	763	763	763	765	765	767	767	768	770	770	772	772	772	773	773	775	775	773	773	773	773	773	775	773	773	773	773	773	773	773	773	773	773	773	773	775	775	775	775	775	775	775	773	773	773	773	773	773	775	775	775	775	777	777	777	777	777	777	777	777	775	775	775	773	773	772	770	770	770	770	772	772	773	773	772	772	770	768	768	767	767	767	767	767	765	765	765	765	765	765	765	767	770	773	773	775	775	775	775	773	773	773	775	775	775	777	777	777	777	777	777	777	777	777	777	775	773	772	772	772	772	773	773	773	777	779	780	782	782	782	782	784	784	784	786	788	791	793	795	795	795	795	3583	3583	3621	3621	3659	3621	3583	3583	3583	0	0	0	0	0	0	0	6592	6468	6468	6468	0	6349	6468	6349	6235	6235	6124	6124	6124	6124	6124	6124	6124	6124	6235	6124	6124	6018	6018	6018	5915	5815	5815	5815	5719	5719	5626	5626	5626	5535	5535	5448	5364	5448	5364	5448	5448	5448	5364	5364	5282	5282	5282	5202	5202	5202	5202	5282	5364	5282	5202	5125	5050	4977	4977	4977	4977	4977	4906	4838	4771	4771	4771	4706	4706	4706	4706	4706	4706	4643	4643	4643	4643	4643	4581	4581	4581	4521	4521	4521	4463	4406	4350	4350	4350	4406	4350	4350	4296	4296	4296	4296	4296	4243	4243	4243	4243	4243	4243	4192	4192	4142	4142	4142	0	3952	3821	3821	3621	3583	3583	3546	3546	3546	3546	3546	3546	3510	0	0	0	0	0	0	0	0
